# .PCD v0.7 - Point Cloud Data file format
VERSION 0.7
FIELDS x y z
SIZE 4 4 4
TYPE F F F
COUNT 1 1 1
WIDTH 1422
HEIGHT 1
VIEWPOINT 0 0 0 1 0 0 0
POINTS 1422
DATA ascii
0.56054056 -0.32162163 0.85000002
0.56447023 -0.32124323 0.84899998
0.56838918 -0.32086489 0.84799999
0.57297301 -0.32086489 0.84799999
0.57704598 -0.32058108 0.84724998
0.5816257 -0.32058108 0.84724998
-0.58741617 -0.31665403 0.84899998
-0.58214056 -0.31628108 0.84799999
-0.57755679 -0.31628108 0.84799999
-0.57364863 -0.31665403 0.84899998
-0.56972975 -0.31702703 0.85000002
-0.56563377 -0.31730676 0.85075003
-0.56120002 -0.31740001 0.85100001
-0.55660003 -0.31740001 0.85100001
-0.55199999 -0.31740001 0.85100001
-0.54788244 -0.31767973 0.85175002
-0.54439461 -0.31833243 0.85350001
-0.53993922 -0.31842569 0.85374999
-0.5362649 -0.31898513 0.85525
-0.5316419 -0.31898513 0.85525
-0.5270189 -0.31898513 0.85525
-0.52147973 -0.31842569 0.85374999
-0.51520002 -0.31740001 0.85100001
-0.50939995 -0.31665403 0.84899998
-0.50362164 -0.3159081 0.847
-0.49801219 -0.3152554 0.84525001
-0.49388111 -0.31553516 0.84600002
-0.48974192 -0.31581488 0.84675002
-0.48573786 -0.31618786 0.84775001
-0.48172298 -0.3165608 0.84875
-0.47713515 -0.3165608 0.84875
-0.47268644 -0.31665403 0.84899998
-0.46809727 -0.31665403 0.84899998
-0.46350807 -0.31665403 0.84899998
-0.45945948 -0.31702703 0.85000002
-0.45540002 -0.31740001 0.85100001
-0.4508 -0.31740001 0.85100001
-0.44606894 -0.31730676 0.85075003
-0.44108111 -0.31702703 0.85000002
-0.43597293 -0.31665403 0.84899998
-0.43087569 -0.31628108 0.84799999
-0.42629191 -0.31628108 0.84799999
-0.42170811 -0.31628108 0.84799999
-0.41712433 -0.31628108 0.84799999
-0.41217569 -0.31600136 0.84724998
-0.40759596 -0.31600136 0.84724998
-0.40301624 -0.31600136 0.84724998
-0.39831892 -0.3159081 0.847
-0.39385676 -0.31600136 0.84724998
-0.38927704 -0.31600136 0.84724998
-0.38515133 -0.3163743 0.84824997
-0.38090268 -0.31665403 0.84899998
-0.37631348 -0.31665403 0.84899998
-0.37161487 -0.3165608 0.84875
-0.36659461 -0.31618786 0.84775001
-0.36169189 -0.3159081 0.847
-0.35742974 -0.31618786 0.84775001
-0.35253516 -0.3159081 0.847
-0.34795678 -0.3159081 0.847
-0.34297299 -0.31553516 0.84600002
-0.338 -0.31516218 0.84500003
-0.33333379 -0.31506893 0.84474999
-0.32905948 -0.31534865 0.84549999
-0.32448921 -0.31534865 0.84549999
-0.32029727 -0.3157216 0.84649998
-0.31581488 -0.31581488 0.84675002
-0.31160542 -0.31618786 0.84775001
-0.30729461 -0.31646758 0.84850001
-0.30244055 -0.31618786 0.84775001
-0.29680407 -0.31506893 0.84474999
-0.29120001 -0.31395 0.84175003
-0.2863946 -0.31367028 0.84100002
-0.28210002 -0.31395 0.84175003
-0.27796218 -0.31441623 0.84299999
-0.27381083 -0.31488246 0.84425002
-0.26948649 -0.31516218 0.84500003
-0.26491892 -0.31516218 0.84500003
-0.26035136 -0.31516218 0.84500003
-0.2557838 -0.31516218 0.84500003
-0.25114191 -0.31506893 0.84474999
-0.2459919 -0.31432298 0.84275001
-0.2414365 -0.31432298 0.84275001
-0.23723242 -0.31478918 0.84399998
-0.23315269 -0.31544188 0.84574997
-0.22912163 -0.31618786 0.84775001
-0.22480406 -0.3165608 0.84875
-0.22021621 -0.3165608 0.84875
-0.21537434 -0.31618786 0.84775001
-0.21060541 -0.3159081 0.847
-0.20602703 -0.3159081 0.847
-0.20138919 -0.31581488 0.84675002
-0.19687028 -0.3159081 0.847
-0.19246216 -0.31618786 0.84775001
-0.18810135 -0.3165608 0.84875
-0.18351352 -0.3165608 0.84875
-0.17892568 -0.3165608 0.84875
-0.17433785 -0.3165608 0.84875
-0.16995001 -0.31693378 0.84974998
-0.16535676 -0.31693378 0.84974998
-0.16057433 -0.3165608 0.84875
-0.15584865 -0.31628108 0.84799999
-0.15108649 -0.3159081 0.847
-0.14633514 -0.31553516 0.84600002
-0.14163649 -0.3152554 0.84525001
-0.13706757 -0.3152554 0.84525001
-0.13261622 -0.31553516 0.84600002
-0.1281946 -0.3159081 0.847
-0.12361622 -0.3159081 0.847
-0.1188973 -0.31553516 0.84600002
-0.11405405 -0.31478918 0.84399998
-0.10923244 -0.31404325 0.84200001
-0.10465001 -0.31395 0.84175003
-0.10001081 -0.31367028 0.84100002
-0.095691897 -0.31441623 0.84299999
-0.091432422 -0.31544188 0.84574997
-0.086963519 -0.31581488 0.84675002
-0.082313515 -0.31553516 0.84600002
-0.077648655 -0.31516218 0.84500003
-0.073145941 -0.31544188 0.84574997
-0.068574317 -0.31544188 0.84574997
-0.064021625 -0.31553516 0.84600002
-0.059501354 -0.31581488 0.84675002
-0.054924324 -0.31581488 0.84675002
-0.050362162 -0.3159081 0.847
-0.045824327 -0.31618786 0.84775001
-0.041254055 -0.31628108 0.84799999
-0.036713511 -0.31665403 0.84899998
-0.032124322 -0.31665403 0.84899998
-0.027543243 -0.31674731 0.84925002
-0.022972973 -0.31702703 0.85000002
-0.018372973 -0.31693378 0.84974998
-0.013763513 -0.3165608 0.84875
-0.0091648651 -0.31618786 0.84775001
-0.0045783785 -0.3159081 0.847
0 -0.31581488 0.84675002
0.0045716213 -0.31544188 0.84574997
0.0091270274 -0.31488246 0.84425002
0.013690541 -0.31488246 0.84425002
0.018270271 -0.31516218 0.84500003
0.022885136 -0.31581488 0.84675002
0.027478378 -0.31600136 0.84724998
0.032114867 -0.3165608 0.84875
0.036702704 -0.3165608 0.84875
0.041241892 -0.31618786 0.84775001
0.045770273 -0.31581488 0.84675002
0.050302703 -0.31553516 0.84600002
0.054859456 -0.31544188 0.84574997
0.059448652 -0.31553516 0.84600002
0.064078383 -0.31581488 0.84675002
0.068736486 -0.31618786 0.84775001
0.073405407 -0.3165608 0.84875
0.077924326 -0.31628108 0.84799999
0.082410812 -0.3159081 0.847
0.086989194 -0.3159081 0.847
0.091459461 -0.31553516 0.84600002
0.096032433 -0.31553516 0.84600002
0.10072432 -0.3159081 0.847
0.10530271 -0.3159081 0.847
0.11001082 -0.31628108 0.84799999
0.11472972 -0.31665403 0.84899998
0.11928379 -0.3165608 0.84875
0.12361622 -0.3159081 0.847
0.12815677 -0.31581488 0.84675002
0.13245946 -0.31516218 0.84500003
0.13694595 -0.31497568 0.84450001
0.14142701 -0.31478918 0.84399998
0.14611892 -0.31506893 0.84474999
0.15072973 -0.31516218 0.84500003
0.15534325 -0.3152554 0.84525001
0.16038515 -0.31618786 0.84775001
0.16516216 -0.3165608 0.84875
0.16955 -0.31618786 0.84775001
0.17377298 -0.31553516 0.84600002
0.17818785 -0.3152554 0.84525001
0.18313514 -0.3159081 0.847
0.18810135 -0.3165608 0.84875
0.19297297 -0.31702703 0.85000002
0.19756757 -0.31702703 0.85000002
0.20192431 -0.31665403 0.84899998
0.20651349 -0.31665403 0.84899998
0.21135135 -0.31702703 0.85000002
0.21626352 -0.31749326 0.85124999
0.22151351 -0.31842569 0.85374999
0.22652568 -0.31898513 0.85525
0.23094594 -0.31870541 0.8545
0.23535812 -0.31842569 0.85374999
0.2396919 -0.31805271 0.85275
0.24408649 -0.31777298 0.852
0.2486919 -0.31777298 0.852
0.25352028 -0.31805271 0.85275
0.25812975 -0.31805271 0.85275
0.2622 -0.31740001 0.85100001
0.26672164 -0.31730676 0.85075003
0.27132028 -0.31730676 0.85075003
0.27591893 -0.31730676 0.85075003
0.28084731 -0.31767973 0.85175002
0.28603783 -0.31833243 0.85350001
0.29031083 -0.31795946 0.85250002
0.29431352 -0.31730676 0.85075003
0.29829729 -0.31665403 0.84899998
0.30288646 -0.31665403 0.84899998
0.30810946 -0.31730676 0.85075003
0.31280002 -0.31740001 0.85100001
0.31767973 -0.31767973 0.85175002
0.3222838 -0.31767973 0.85175002
0.32660002 -0.31740001 0.85100001
0.33129731 -0.31749326 0.85124999
0.33688515 -0.31842569 0.85374999
0.34150001 -0.31842569 0.85374999
0.34570947 -0.31805271 0.85275
0.34990811 -0.31767973 0.85175002
0.35451216 -0.31767973 0.85175002
0.35869461 -0.31730676 0.85075003
0.36329326 -0.31730676 0.85075003
0.36789191 -0.31730676 0.85075003
0.37249056 -0.31730676 0.85075003
0.37742159 -0.31758645 0.85149997
0.38213649 -0.31767973 0.85175002
0.3862865 -0.31730676 0.85075003
0.39088514 -0.31730676 0.85075003
0.39513513 -0.31702703 0.85000002
0.40008244 -0.31730676 0.85075003
0.4048 -0.31740001 0.85100001
0.40891892 -0.31702703 0.85000002
0.41302699 -0.31665403 0.84899998
0.41712433 -0.31628108 0.84799999
0.42170811 -0.31628108 0.84799999
0.42679456 -0.31665403 0.84899998
0.43227297 -0.31730676 0.85075003
0.43789867 -0.31805271 0.85275
0.44302702 -0.31842569 0.85374999
0.44764191 -0.31842569 0.85374999
0.45278651 -0.31879866 0.85474998
0.45780811 -0.31907839 0.85549998
0.46337837 -0.31973109 0.85724998
0.46801215 -0.31973109 0.85724998
0.47264594 -0.31973109 0.85724998
0.47616622 -0.31898513 0.85525
0.47994596 -0.31842569 0.85374999
0.48342568 -0.31767973 0.85175002
0.4876 -0.31740001 0.85100001
0.49220002 -0.31740001 0.85100001
0.49680001 -0.31740001 0.85100001
0.5018419 -0.31767973 0.85175002
0.50704056 -0.31805271 0.85275
0.51165003 -0.31805271 0.85275
0.51625949 -0.31805271 0.85275
0.52041084 -0.31777298 0.852
0.5244 -0.31740001 0.85100001
0.52899998 -0.31740001 0.85100001
0.53360003 -0.31740001 0.85100001
0.53867435 -0.31767973 0.85175002
0.54439461 -0.31833243 0.85350001
0.55013376 -0.31898513 0.85525
0.55491894 -0.31907839 0.85549998
0.55888921 -0.31870541 0.8545
0.56301349 -0.31842569 0.85374999
0.56596625 -0.31749326 0.85124999
0.5704 -0.31740001 0.85100001
0.57516891 -0.31749326 0.85124999
0.58028108 -0.31777298 0.852
0.58505809 -0.31786624 0.85224998
-0.59070271 -0.31381083 0.85374999
-0.58608782 -0.31381083 0.85374999
-0.5813027 -0.31371891 0.85350001
-0.57567567 -0.31316757 0.852
-0.57107025 -0.31316757 0.852
-0.56663108 -0.31325945 0.85224998
-0.56251895 -0.31353515 0.85299999
-0.55807161 -0.31362703 0.85325003
-0.55394596 -0.31390271 0.85399997
-0.54932976 -0.31390271 0.85399997
-0.5447135 -0.31390271 0.85399997
-0.5400973 -0.31390271 0.85399997
-0.53595138 -0.31417838 0.85474998
-0.53195274 -0.31454596 0.85575002
-0.52778918 -0.31482163 0.85650003
-0.52254868 -0.31445405 0.85549998
-0.51777297 -0.31436217 0.85525
-0.51165003 -0.31344324 0.85275
-0.50540543 -0.31243244 0.85000002
-0.49963245 -0.3116973 0.84799999
-0.49446487 -0.31132975 0.847
-0.48988649 -0.31132975 0.847
-0.48588109 -0.3116973 0.84799999
-0.48229057 -0.31234056 0.84974998
-0.47825947 -0.31270811 0.85075003
-0.4738 -0.31280002 0.85100001
-0.46920002 -0.31280002 0.85100001
-0.4646 -0.31280002 0.85100001
-0.46094596 -0.31344324 0.85275
-0.45727298 -0.3140865 0.8545
-0.45305136 -0.31436217 0.85525
-0.44803515 -0.3140865 0.8545
-0.44289732 -0.31371891 0.85350001
-0.43700001 -0.31280002 0.85100001
-0.43240002 -0.31280002 0.85100001
-0.4278 -0.31280002 0.85100001
-0.42369729 -0.31316757 0.852
-0.4195838 -0.31353515 0.85299999
-0.41485137 -0.31344324 0.85275
-0.40952027 -0.3128919 0.85124999
-0.4048 -0.31280002 0.85100001
-0.3998473 -0.31252432 0.85025001
-0.39571622 -0.3128919 0.85124999
-0.39191893 -0.31353515 0.85299999
-0.38764864 -0.31381083 0.85374999
-0.38303378 -0.31381083 0.85374999
-0.37841892 -0.31381083 0.85374999
-0.37303784 -0.31316757 0.852
-0.36756757 -0.31243244 0.85000002
-0.36254591 -0.31206483 0.84899998
-0.35795674 -0.31206483 0.84899998
-0.35336754 -0.31206483 0.84899998
-0.34836757 -0.3116973 0.84799999
-0.34337839 -0.31132975 0.847
-0.33810002 -0.3106865 0.84525001
-0.33343244 -0.31059462 0.84500003
-0.32886487 -0.31059462 0.84500003
-0.3246811 -0.31096217 0.84600002
-0.32048649 -0.31132975 0.847
-0.31618786 -0.31160542 0.84775001
-0.3116973 -0.3116973 0.84799999
-0.30684191 -0.31142163 0.84724998
-0.30217299 -0.31132975 0.847
-0.29715538 -0.31087026 0.84574997
-0.29197836 -0.31022701 0.84399998
-0.28775677 -0.31059462 0.84500003
-0.28377569 -0.31123784 0.84675002
-0.27985811 -0.31197298 0.84875
-0.27527028 -0.31197298 0.84875
-0.27076215 -0.31206483 0.84899998
-0.26617295 -0.31206483 0.84899998
-0.26150677 -0.31197298 0.84875
-0.25691894 -0.31197298 0.84875
-0.25225675 -0.3118811 0.84850001
-0.24715947 -0.31123784 0.84675002
-0.2425108 -0.31114593 0.84649998
-0.2377243 -0.31087026 0.84574997
-0.23342839 -0.31123784 0.84675002
-0.2293919 -0.31197298 0.84875
-0.22506893 -0.31234056 0.84974998
-0.22073513 -0.31270811 0.85075003
-0.21613649 -0.31270811 0.85075003
-0.21135135 -0.31243244 0.85000002
-0.20675676 -0.31243244 0.85000002
-0.20210271 -0.31234056 0.84974998
-0.19745135 -0.31224865 0.8495
-0.19280271 -0.31215677 0.84925002
-0.18776892 -0.31142163 0.84724998
-0.1831892 -0.31142163 0.84724998
-0.17876758 -0.3116973 0.84799999
-0.17438918 -0.31206483 0.84899998
-0.17020001 -0.31280002 0.85100001
-0.16574594 -0.31307569 0.85175002
-0.161 -0.31280002 0.85100001
-0.15635405 -0.31270811 0.85075003
-0.15162162 -0.31243244 0.85000002
-0.14715676 -0.31270811 0.85075003
-0.1426 -0.31280002 0.85100001
-0.13828379 -0.31344324 0.85275
-0.13379189 -0.31371891 0.85350001
-0.12917838 -0.31371891 0.85350001
-0.12430947 -0.31307569 0.85175002
-0.11942433 -0.31234056 0.84974998
-0.11445946 -0.31132975 0.847
-0.10984865 -0.31123784 0.84675002
-0.10527162 -0.31123784 0.84675002
-0.10072432 -0.31132975 0.847
-0.096344598 -0.31197298 0.84875
-0.091972977 -0.31270811 0.85075003
-0.087477028 -0.31307569 0.85175002
-0.082775675 -0.31270811 0.85075003
-0.078016207 -0.31206483 0.84899998
-0.073427022 -0.31206483 0.84899998
-0.068837836 -0.31206483 0.84899998
-0.064248644 -0.31206483 0.84899998
-0.059659455 -0.31206483 0.84899998
-0.055070266 -0.31206483 0.84899998
-0.050481077 -0.31206483 0.84899998
-0.045945946 -0.31243244 0.85000002
-0.0414 -0.31280002 0.85100001
-0.036800001 -0.31280002 0.85100001
-0.032200001 -0.31280002 0.85100001
-0.027591892 -0.31270811 0.85075003
-0.022972973 -0.31243244 0.85000002
-0.018356755 -0.31206483 0.84899998
-0.013751352 -0.3116973 0.84799999
-0.009156757 -0.31132975 0.847
-0.0045783785 -0.31132975 0.847
0 -0.31132975 0.847
0.0045783785 -0.31132975 0.847
0.0091540543 -0.31123784 0.84675002
0.013735136 -0.31132975 0.847
0.018356755 -0.31206483 0.84899998
0.022993244 -0.31270811 0.85075003
0.027656756 -0.31344324 0.85275
0.032294594 -0.31371891 0.85350001
0.036875676 -0.31344324 0.85275
0.0414 -0.31280002 0.85100001
0.045986488 -0.31270811 0.85075003
0.050481077 -0.31206483 0.84899998
0.055054054 -0.31197298 0.84875
0.059641894 -0.31197298 0.84875
0.064248644 -0.31206483 0.84899998
0.068837836 -0.31206483 0.84899998
0.073427022 -0.31206483 0.84899998
0.078085139 -0.31234056 0.84974998
0.082678378 -0.31234056 0.84974998
0.087271623 -0.31234056 0.84974998
0.091675676 -0.3116973 0.84799999
0.09625946 -0.3116973 0.84799999
0.10096215 -0.31206483 0.84899998
0.10555135 -0.31206483 0.84899998
0.11027028 -0.31243244 0.85000002
0.115 -0.31280002 0.85100001
0.11960001 -0.31280002 0.85100001
0.1242 -0.31280002 0.85100001
0.1288 -0.31280002 0.85100001
0.13308647 -0.31206483 0.84899998
0.13743244 -0.31151351 0.84750003
0.14209729 -0.3116973 0.84799999
0.14672431 -0.31178916 0.84824997
0.15144323 -0.31206483 0.84899998
0.15603241 -0.31206483 0.84899998
0.1609527 -0.31270811 0.85075003
0.16555135 -0.31270811 0.85075003
0.16979998 -0.31206483 0.84899998
0.17397839 -0.31132975 0.847
0.17818785 -0.3106865 0.84525001
0.18313514 -0.31132975 0.847
0.1885446 -0.31270811 0.85075003
0.1935973 -0.31344324 0.85275
0.19820677 -0.31344324 0.85275
0.20305406 -0.31381083 0.85374999
0.20772973 -0.31390271 0.85399997
0.21253243 -0.31417838 0.85474998
0.21734324 -0.31445405 0.85549998
0.22196758 -0.31445405 0.85549998
0.2265919 -0.31445405 0.85549998
0.23081082 -0.31390271 0.85399997
0.23535812 -0.31381083 0.85374999
0.23976217 -0.31353515 0.85299999
0.24458784 -0.31381083 0.85374999
0.24920271 -0.31381083 0.85374999
0.25381756 -0.31381083 0.85374999
0.25843245 -0.31381083 0.85374999
0.26304731 -0.31381083 0.85374999
0.26742703 -0.31353515 0.85299999
0.27227703 -0.31381083 0.85374999
0.27697298 -0.31390271 0.85399997
0.28183648 -0.31417838 0.85474998
0.28670812 -0.31445405 0.85549998
0.29107702 -0.31417838 0.85474998
0.29535136 -0.31381083 0.85374999
0.29908785 -0.3128919 0.85124999
0.30368918 -0.3128919 0.85124999
0.3086527 -0.31325945 0.85224998
0.31390271 -0.31390271 0.85399997
0.31917164 -0.31454596 0.85575002
0.32408109 -0.31482163 0.85650003
0.32842296 -0.31454596 0.85575002
0.33334056 -0.31482163 0.85650003
0.33866081 -0.31546485 0.85825002
0.34330001 -0.31546485 0.85825002
0.34722972 -0.31482163 0.85650003
0.35083243 -0.31390271 0.85399997
0.35492837 -0.31344324 0.85275
0.35869461 -0.31270811 0.85075003
0.36254591 -0.31206483 0.84899998
0.36713511 -0.31206483 0.84899998
0.37216216 -0.31243244 0.85000002
0.37753245 -0.31307569 0.85175002
0.38258514 -0.31344324 0.85275
0.38753515 -0.31371891 0.85350001
0.39214864 -0.31371891 0.85350001
0.39652973 -0.31353515 0.85299999
0.40149325 -0.31381083 0.85374999
0.40646487 -0.3140865 0.8545
0.41084325 -0.31390271 0.85399997
0.41533783 -0.31381083 0.85374999
0.41909191 -0.31316757 0.852
0.42320001 -0.31280002 0.85100001
0.4278 -0.31280002 0.85100001
0.43290812 -0.31316757 0.852
0.43841216 -0.31381083 0.85374999
0.44354594 -0.31417838 0.85474998
0.44869053 -0.31454596 0.85575002
0.45371351 -0.31482163 0.85650003
0.45847702 -0.31491351 0.85675001
0.46297297 -0.31482163 0.85650003
0.46719325 -0.31454596 0.85575002
0.47181892 -0.31454596 0.85575002
0.47630543 -0.31445405 0.85549998
0.48107028 -0.31454596 0.85575002
0.48569596 -0.31454596 0.85575002
0.49032164 -0.31454596 0.85575002
0.49480271 -0.31445405 0.85549998
0.49855137 -0.31390271 0.85399997
0.50316757 -0.31390271 0.85399997
0.50778377 -0.31390271 0.85399997
0.51284999 -0.31417838 0.85474998
0.51792431 -0.31445405 0.85549998
0.52209055 -0.31417838 0.85474998
0.52624863 -0.31390271 0.85399997
0.53024328 -0.31353515 0.85299999
0.53485405 -0.31353515 0.85299999
0.53946489 -0.31353515 0.85299999
0.54519188 -0.31417838 0.85474998
0.55045539 -0.31454596 0.85575002
0.55621624 -0.31518918 0.85750002
0.56085134 -0.31518918 0.85750002
0.56499189 -0.31491351 0.85675001
0.5689581 -0.31454596 0.85575002
0.57358378 -0.31454596 0.85575002
0.5793919 -0.31518918 0.85750002
0.58470809 -0.31555676 0.8585
0.59106487 -0.31647569 0.861
-0.59277838 -0.31028244 0.85675001
-0.58763242 -0.31001082 0.85600001
-0.58351624 -0.31028244 0.85675001
-0.5793919 -0.31055406 0.85750002
-0.57442164 -0.31037298 0.85699999
-0.57078648 -0.31091622 0.8585
-0.56631082 -0.31100675 0.85874999
-0.56166893 -0.31100675 0.85874999
-0.55686486 -0.31091622 0.8585
-0.55158108 -0.31055406 0.85750002
-0.54598922 -0.31001082 0.85600001
-0.54120404 -0.30992028 0.85575002
-0.53673512 -0.31001082 0.85600001
-0.53304052 -0.31055406 0.85750002
-0.52794325 -0.31028244 0.85675001
-0.52270138 -0.30992028 0.85575002
-0.51792431 -0.30982974 0.85549998
-0.51270002 -0.30946758 0.8545
-0.50763512 -0.30919597 0.85374999
-0.5018419 -0.30847162 0.85175002
-0.49621624 -0.30783784 0.85000002
-0.49118784 -0.30756623 0.84925002
-0.48702705 -0.30783784 0.85000002
-0.4831419 -0.30829054 0.85124999
-0.47994596 -0.30919597 0.85374999
-0.47547027 -0.3092865 0.85399997
-0.47099191 -0.30937704 0.85425001
-0.4666473 -0.30955812 0.85474998
-0.46216217 -0.30964866 0.85500002
-0.45847702 -0.31028244 0.85675001
-0.45424324 -0.31055406 0.85750002
-0.44869053 -0.30992028 0.85575002
-0.44354594 -0.30955812 0.85474998
-0.43854055 -0.3092865 0.85399997
-0.43392432 -0.3092865 0.85399997
-0.43018785 -0.30992028 0.85575002
-0.42643243 -0.31055406 0.85750002
-0.42265812 -0.31118783 0.85925001
-0.41764864 -0.31091622 0.8585
-0.41288784 -0.31082568 0.85825002
-0.4078919 -0.31055406 0.85750002
-0.40360945 -0.31082568 0.85825002
-0.39943513 -0.31118783 0.85925001
-0.39490542 -0.31127837 0.85949999
-0.38980541 -0.31091622 0.8585
-0.38505271 -0.31082568 0.85825002
-0.37974864 -0.31028244 0.85675001
-0.37457028 -0.30982974 0.85549998
-0.36951351 -0.30946758 0.8545
-0.36468109 -0.3092865 0.85399997
-0.35995945 -0.30919597 0.85374999
-0.35534459 -0.30919597 0.85374999
-0.35001081 -0.30856216 0.852
-0.345 -0.3082 0.85100001
-0.33990002 -0.3077473 0.84974998
-0.33461621 -0.30711353 0.84799999
-0.32974055 -0.30684191 0.84724998
-0.32487294 -0.30657026 0.84649998
-0.32095945 -0.30720404 0.84824997
-0.31674731 -0.30756623 0.84925002
-0.31215677 -0.30756623 0.84925002
-0.30747566 -0.30747566 0.84899998
-0.30226216 -0.30684191 0.84724998
-0.29759461 -0.30675137 0.847
-0.29301623 -0.30675137 0.847
-0.2890338 -0.30738515 0.84875
-0.28511623 -0.30810946 0.85075003
-0.28117704 -0.30883378 0.85275
-0.27689189 -0.30919597 0.85374999
-0.27227703 -0.30919597 0.85374999
-0.26742703 -0.30892432 0.85299999
-0.26250812 -0.30856216 0.852
-0.25760001 -0.3082 0.85100001
-0.25262839 -0.3077473 0.84974998
-0.24745136 -0.30702299 0.84775001
-0.24258244 -0.30666083 0.84675002
-0.23779461 -0.30638921 0.84600002
-0.23322164 -0.30638921 0.84600002
-0.22891892 -0.30675137 0.847
-0.22513515 -0.30783784 0.85000002
-0.22125405 -0.30883378 0.85275
-0.21708919 -0.30946758 0.8545
-0.21247028 -0.30946758 0.8545
-0.20760812 -0.3091054 0.85350001
-0.20287567 -0.30892432 0.85299999
-0.19814865 -0.30874324 0.85250002
-0.19337027 -0.30847162 0.85175002
-0.1884892 -0.30801892 0.85049999
-0.1834054 -0.30720404 0.84824997
-0.17897837 -0.30747566 0.84899998
-0.17480001 -0.3082 0.85100001
-0.1707 -0.3091054 0.85350001
-0.16613513 -0.30919597 0.85374999
-0.16152027 -0.30919597 0.85374999
-0.15676758 -0.30892432 0.85299999
-0.15229054 -0.30919597 0.85374999
-0.14784865 -0.30955812 0.85474998
-0.14339595 -0.30992028 0.85575002
-0.13905406 -0.31055406 0.85750002
-0.13453649 -0.31082568 0.85825002
-0.12963243 -0.3101919 0.85650003
-0.12460136 -0.30919597 0.85374999
-0.11970541 -0.30847162 0.85175002
-0.11486487 -0.30783784 0.85000002
-0.11023784 -0.3077473 0.84974998
-0.10576892 -0.30810946 0.85075003
-0.10140811 -0.30883378 0.85275
-0.096997298 -0.30946758 0.8545
-0.092486486 -0.30982974 0.85549998
-0.08778514 -0.30955812 0.85474998
-0.083091892 -0.3092865 0.85399997
-0.078452706 -0.30919597 0.85374999
-0.073837839 -0.30919597 0.85374999
-0.069222972 -0.30919597 0.85374999
-0.064532436 -0.30883378 0.85275
-0.059870273 -0.30856216 0.852
-0.055264868 -0.30856216 0.852
-0.050704055 -0.30883378 0.85275
-0.046162162 -0.3092865 0.85399997
-0.041618921 -0.30982974 0.85549998
-0.036962163 -0.30955812 0.85474998
-0.032313515 -0.3092865 0.85399997
-0.027664866 -0.30892432 0.85299999
-0.023006758 -0.30829054 0.85124999
-0.018394595 -0.30810946 0.85075003
-0.013767567 -0.30747566 0.84899998
-0.0091783777 -0.30747566 0.84899998
-0.004587838 -0.30738515 0.84875
0 -0.30711353 0.84799999
0.0045891888 -0.30747566 0.84899998
0.0091810813 -0.30756623 0.84925002
0.013795946 -0.30810946 0.85075003
0.018437838 -0.30883378 0.85275
0.023074325 -0.30919597 0.85374999
0.027737837 -0.3097392 0.85525
0.032370269 -0.30982974 0.85549998
0.036951352 -0.30946758 0.8545
0.041533783 -0.30919597 0.85374999
0.046094596 -0.30883378 0.85275
0.050614867 -0.30829054 0.85124999
0.055200003 -0.3082 0.85100001
0.059800003 -0.3082 0.85100001
0.064400002 -0.3082 0.85100001
0.068999998 -0.3082 0.85100001
0.073600002 -0.3082 0.85100001
0.078291893 -0.30856216 0.852
0.082970269 -0.30883378 0.85275
0.087502703 -0.30856216 0.852
0.092 -0.3082 0.85100001
0.096685134 -0.30847162 0.85175002
0.10131892 -0.30856216 0.852
0.1061419 -0.30919597 0.85374999
0.11085406 -0.30946758 0.8545
0.11560811 -0.30982974 0.85549998
0.12037297 -0.3101919 0.85650003
0.12511216 -0.31046352 0.85724998
0.12963243 -0.3101919 0.85650003
0.13410541 -0.30982974 0.85549998
0.13868919 -0.3097392 0.85525
0.14318649 -0.30946758 0.8545
0.14776216 -0.30937704 0.85425001
0.15229054 -0.30919597 0.85374999
0.15690541 -0.30919597 0.85374999
0.16152027 -0.30919597 0.85374999
0.16608649 -0.3091054 0.85350001
0.17020001 -0.3082 0.85100001
0.17438918 -0.30747566 0.84899998
0.17860946 -0.30684191 0.84724998
0.1834054 -0.30720404 0.84824997
0.18882163 -0.30856216 0.852
0.19388108 -0.3092865 0.85399997
0.19867162 -0.30955812 0.85474998
0.20358919 -0.31001082 0.85600001
0.20882432 -0.31091622 0.8585
0.21371351 -0.31127837 0.85949999
0.21855 -0.31154999 0.86025
0.2224865 -0.31055406 0.85750002
0.22639325 -0.30955812 0.85474998
0.23054054 -0.30892432 0.85299999
0.2349446 -0.3086527 0.85224998
0.23976217 -0.30892432 0.85299999
0.24465947 -0.3092865 0.85399997
0.24927568 -0.3092865 0.85399997
0.25389189 -0.3092865 0.85399997
0.25865945 -0.30946758 0.8545
0.2633554 -0.30955812 0.85474998
0.26821083 -0.30982974 0.85549998
0.27315405 -0.3101919 0.85650003
0.27835137 -0.31082568 0.85825002
0.28307298 -0.31091622 0.8585
0.28771353 -0.31091622 0.8585
0.29235405 -0.31091622 0.8585
0.29673514 -0.3106446 0.85775
0.30102026 -0.31028244 0.85675001
0.30556217 -0.3101919 0.85650003
0.31028244 -0.31028244 0.85675001
0.31564865 -0.31100675 0.85874999
0.32122296 -0.31191215 0.86124998
0.32587838 -0.31191215 0.86124998
0.33053377 -0.31191215 0.86124998
0.33518919 -0.31191215 0.86124998
0.33984458 -0.31191215 0.86124998
0.34450001 -0.31191215 0.86124998
0.34804055 -0.31091622 0.8585
0.35114056 -0.30955812 0.85474998
0.35503244 -0.30892432 0.85299999
0.35848379 -0.30792838 0.85025001
0.36222565 -0.30720404 0.84824997
0.3663784 -0.30684191 0.84724998
0.37139592 -0.30720404 0.84824997
0.37675676 -0.30783784 0.85000002
0.38191217 -0.30829054 0.85124999
0.38730812 -0.30892432 0.85299999
0.39237839 -0.3092865 0.85399997
0.39711082 -0.30937704 0.85425001
0.40208107 -0.30964866 0.85500002
0.40753514 -0.31028244 0.85675001
0.41252702 -0.31055406 0.85750002
0.41716218 -0.31055406 0.85750002
0.4209365 -0.30992028 0.85575002
0.42543784 -0.30982974 0.85549998
0.42955947 -0.30946758 0.8545
0.43468648 -0.30982974 0.85549998
0.43943921 -0.30992028 0.85575002
0.44497299 -0.31055406 0.85750002
0.45013243 -0.31091622 0.8585
0.45530272 -0.31127837 0.85949999
0.45941353 -0.31091622 0.8585
0.46256757 -0.30992028 0.85575002
0.4666473 -0.30955812 0.85474998
0.47085407 -0.3092865 0.85399997
0.47602704 -0.30964866 0.85500002
0.4821946 -0.3106446 0.85775
0.48824999 -0.31154999 0.86025
0.49332973 -0.31182161 0.861
0.49697164 -0.31118783 0.85925001
0.50015676 -0.31028244 0.85675001
0.50419867 -0.30992028 0.85575002
0.50882435 -0.30992028 0.85575002
0.51420003 -0.31037298 0.85699999
0.52004325 -0.31109729 0.85900003
0.5256027 -0.31164053 0.86049998
0.5291757 -0.31100675 0.85874999
0.53272974 -0.31037298 0.85699999
0.53673512 -0.31001082 0.85600001
0.54136217 -0.31001082 0.85600001
0.54662704 -0.31037298 0.85699999
0.55238515 -0.31100675 0.85874999
0.55718917 -0.31109729 0.85900003
0.56297702 -0.31173107 0.86075002
0.56762975 -0.31173107 0.86075002
0.57178378 -0.31145945 0.86000001
0.57693511 -0.31173107 0.86075002
0.58277029 -0.31236488 0.86250001
0.58811349 -0.31272703 0.8635
0.59415406 -0.31345135 0.86549997
-0.59606487 -0.30734596 0.86150002
-0.59089327 -0.30707839 0.86075002
-0.58692163 -0.30743513 0.86175001
-0.58293921 -0.30779189 0.86274999
-0.57894593 -0.30814865 0.86374998
-0.57560676 -0.30886215 0.86575001
-0.57109189 -0.30895135 0.866
-0.56624728 -0.30886215 0.86575001
-0.56027025 -0.30814865 0.86374998
-0.55447567 -0.30752432 0.86199999
-0.54949731 -0.30734596 0.86150002
-0.54436624 -0.30707839 0.86075002
-0.5397135 -0.30707839 0.86075002
-0.5345946 -0.30681083 0.86000001
-0.52979189 -0.30672163 0.85974997
-0.52453381 -0.30636486 0.85874999
-0.51822704 -0.3053838 0.85600001
-0.51300001 -0.30502704 0.85500002
-0.50822973 -0.30493784 0.85474998
-0.50405139 -0.3052054 0.85549998
-0.49957299 -0.3052946 0.85575002
-0.49494731 -0.3052946 0.85575002
-0.49032164 -0.3052946 0.85575002
-0.48626351 -0.30565137 0.85675001
-0.48261622 -0.30627567 0.8585
-0.47853243 -0.30663243 0.85949999
-0.47485134 -0.30725676 0.86124998
-0.46978649 -0.30698919 0.86049998
-0.46554053 -0.30725676 0.86124998
-0.46035001 -0.30689999 0.86025
-0.45530272 -0.30663243 0.85949999
-0.45026353 -0.30636486 0.85874999
-0.44549191 -0.30627567 0.8585
-0.44046623 -0.3060081 0.85775
-0.43621081 -0.30627567 0.8585
-0.43257567 -0.30698919 0.86049998
-0.42842162 -0.30734596 0.86150002
-0.42413378 -0.30761352 0.86224997
-0.41947296 -0.30761352 0.86224997
-0.41445136 -0.30734596 0.86150002
-0.4097946 -0.30734596 0.86150002
-0.40560812 -0.30770269 0.86250001
-0.40141082 -0.30805945 0.8635
-0.39674324 -0.30805945 0.8635
-0.39128107 -0.30743513 0.86175001
-0.38617432 -0.30707839 0.86075002
-0.38063514 -0.30636486 0.85874999
-0.37599325 -0.30636486 0.85874999
-0.37135136 -0.30636486 0.85874999
-0.36660272 -0.30627567 0.8585
-0.36196217 -0.30627567 0.8585
-0.3569054 -0.30591893 0.85750002
-0.35155135 -0.3052946 0.85575002
-0.34682432 -0.3052054 0.85549998
-0.3416 -0.30467027 0.85399997
-0.33688515 -0.30458108 0.85374999
-0.33217299 -0.30449191 0.85350001
-0.32755947 -0.30449191 0.85350001
-0.32341892 -0.30493784 0.85474998
-0.31907839 -0.3052054 0.85549998
-0.31445405 -0.3052054 0.85549998
-0.3092865 -0.30467027 0.85399997
-0.30431351 -0.30431351 0.85299999
-0.29935136 -0.30395678 0.852
-0.29440001 -0.30360001 0.85100001
-0.29014054 -0.30395678 0.852
-0.28612164 -0.30458108 0.85374999
-0.28183648 -0.30493784 0.85474998
-0.27778378 -0.30556217 0.85650003
-0.2732338 -0.30565137 0.85675001
-0.26883784 -0.30591893 0.85750002
-0.26366353 -0.3052946 0.85575002
-0.25843245 -0.30458108 0.85374999
-0.25299999 -0.30360001 0.85100001
-0.24730541 -0.30226216 0.84724998
-0.24265406 -0.30217299 0.847
-0.23765406 -0.30163786 0.84549999
-0.23322164 -0.30181623 0.84600002
-0.22905406 -0.30235136 0.84750003
-0.22546622 -0.30368918 0.85124999
-0.22203243 -0.3052946 0.85575002
-0.2180419 -0.3061865 0.85825002
-0.21321622 -0.30591893 0.85750002
-0.20833784 -0.30556217 0.85650003
-0.20358919 -0.3053838 0.85600001
-0.19890405 -0.3052946 0.85575002
-0.19416487 -0.30511621 0.85525
-0.18932027 -0.30475947 0.85425001
-0.18410809 -0.30377835 0.85149997
-0.17982163 -0.30431351 0.85299999
-0.17541622 -0.30467027 0.85399997
-0.17095 -0.30493784 0.85474998
-0.16647568 -0.3052054 0.85549998
-0.16170946 -0.30493784 0.85474998
-0.15722702 -0.3052054 0.85549998
-0.15278108 -0.30556217 0.85650003
-0.14862703 -0.30654323 0.85925001
-0.14431757 -0.30725676 0.86124998
-0.13966216 -0.30725676 0.86124998
-0.13488919 -0.30698919 0.86049998
-0.12993513 -0.30627567 0.8585
-0.12463784 -0.30467027 0.85399997
-0.11974055 -0.30395678 0.852
-0.115 -0.30360001 0.85100001
-0.11043243 -0.30368918 0.85124999
-0.1061419 -0.30458108 0.85374999
-0.10176487 -0.3052946 0.85575002
-0.097337842 -0.30591893 0.85750002
-0.09281081 -0.30627567 0.8585
-0.088170268 -0.30627567 0.8585
-0.083529733 -0.30627567 0.8585
-0.078820273 -0.3060081 0.85775
-0.074162163 -0.30591893 0.85750002
-0.069466218 -0.30565137 0.85675001
-0.064759463 -0.3052946 0.85575002
-0.060116217 -0.3052054 0.85549998
-0.055443242 -0.30493784 0.85474998
-0.050882433 -0.3052946 0.85575002
-0.046351351 -0.30591893 0.85750002
-0.041764867 -0.30627567 0.8585
-0.037167568 -0.30663243 0.85949999
-0.032483783 -0.30627567 0.8585
-0.027786486 -0.30565137 0.85675001
-0.023128379 -0.3052946 0.85575002
-0.018448649 -0.30440271 0.85325003
-0.013816217 -0.30395678 0.852
-0.0092000002 -0.30360001 0.85100001
-0.0046000001 -0.30360001 0.85100001
0 -0.30360001 0.85100001
0.0046054055 -0.30395678 0.852
0.0092297299 -0.30458108 0.85374999
0.013848649 -0.30467027 0.85399997
0.018497298 -0.3052054 0.85549998
0.023121621 -0.3052054 0.85549998
0.027745947 -0.3052054 0.85549998
0.032370269 -0.3052054 0.85549998
0.036994595 -0.3052054 0.85549998
0.04163108 -0.3052946 0.85575002
0.046256758 -0.3052946 0.85575002
0.050867569 -0.3052054 0.85549998
0.055491894 -0.3052054 0.85549998
0.060116217 -0.3052054 0.85549998
0.064683788 -0.30493784 0.85474998
0.069364868 -0.3052054 0.85549998
0.07398919 -0.3052054 0.85549998
0.078544594 -0.30493784 0.85474998
0.08326216 -0.3052946 0.85575002
0.08778514 -0.30493784 0.85474998
0.092351355 -0.30475947 0.85425001
0.097054057 -0.30502704 0.85500002
0.10176487 -0.3052946 0.85575002
0.10642162 -0.3053838 0.85600001
0.11127567 -0.3060081 0.85775
0.11614865 -0.30663243 0.85949999
0.12079459 -0.30663243 0.85949999
0.12558648 -0.30698919 0.86049998
0.13023783 -0.30698919 0.86049998
0.13477162 -0.30672163 0.85974997
0.13937838 -0.30663243 0.85949999
0.14389865 -0.30636486 0.85874999
0.14832433 -0.30591893 0.85750002
0.1526473 -0.3052946 0.85575002
0.15722702 -0.3052054 0.85549998
0.16170946 -0.30493784 0.85474998
0.16647568 -0.3052054 0.85549998
0.17075001 -0.30458108 0.85374999
0.17515947 -0.30422434 0.85275
0.1794527 -0.30368918 0.85124999
0.18427028 -0.30404595 0.85224998
0.18959729 -0.3052054 0.85549998
0.19467568 -0.30591893 0.85750002
0.19960135 -0.30636486 0.85874999
0.2048973 -0.30734596 0.86150002
0.20997973 -0.30797026 0.86325002
0.21464595 -0.30797026 0.86325002
0.21886757 -0.30734596 0.86150002
0.2228108 -0.30636486 0.85874999
0.22665811 -0.3052946 0.85575002
0.23087838 -0.30475947 0.85425001
0.23522027 -0.30440271 0.85325003
0.24011351 -0.30475947 0.85425001
0.24494594 -0.30502704 0.85500002
0.2497865 -0.3052946 0.85575002
0.2544865 -0.3053838 0.85600001
0.25911352 -0.3053838 0.85600001
0.26366353 -0.3052946 0.85575002
0.26828918 -0.3052946 0.85575002
0.2732338 -0.30565137 0.85675001
0.27843243 -0.30627567 0.8585
0.28340271 -0.30663243 0.85949999
0.28863513 -0.30725676 0.86124998
0.29337567 -0.30734596 0.86150002
0.29803243 -0.30734596 0.86150002
0.30268919 -0.30734596 0.86150002
0.30734596 -0.30734596 0.86150002
0.31209326 -0.30743513 0.86175001
0.31739458 -0.30805945 0.8635
0.32206216 -0.30805945 0.8635
0.32606757 -0.30743513 0.86175001
0.33062974 -0.30734596 0.86150002
0.33499458 -0.30707839 0.86075002
0.33954865 -0.30698919 0.86049998
0.34420002 -0.30698919 0.86049998
0.34814191 -0.30636486 0.85874999
0.35196218 -0.30565137 0.85675001
0.35576081 -0.30493784 0.85474998
0.35932705 -0.30404595 0.85224998
0.36265272 -0.30297568 0.84925002
0.3668108 -0.30261889 0.84824997
0.3718338 -0.30297568 0.84925002
0.37731081 -0.30368918 0.85124999
0.38280946 -0.30440271 0.85325003
0.38855675 -0.3052946 0.85575002
0.39410135 -0.3060081 0.85775
0.3992027 -0.30636486 0.85874999
0.40466756 -0.30698919 0.86049998
0.40967569 -0.30725676 0.86124998
0.41433108 -0.30725676 0.86124998
0.41850001 -0.30689999 0.86025
0.42216623 -0.3061865 0.85825002
0.42630813 -0.30582973 0.85724998
0.43056488 -0.30556217 0.85650003
0.43532163 -0.30565137 0.85675001
0.44097972 -0.30636486 0.85874999
0.44614053 -0.30672163 0.85974997
0.4517054 -0.30734596 0.86150002
0.45636216 -0.30734596 0.86150002
0.45954731 -0.30636486 0.85874999
0.46256757 -0.3052946 0.85575002
0.46623784 -0.30467027 0.85399997
0.47099191 -0.30475947 0.85425001
0.47700137 -0.30565137 0.85675001
0.48374054 -0.30698919 0.86049998
0.48938513 -0.30761352 0.86224997
0.49361622 -0.30734596 0.86150002
0.49726081 -0.30672163 0.85974997
0.50074053 -0.3060081 0.85775
0.50596625 -0.30636486 0.85874999
0.51120269 -0.30672163 0.85974997
0.51795 -0.30797026 0.86325002
0.52458376 -0.30912971 0.86650002
0.52987838 -0.30948648 0.86750001
0.53379726 -0.30904055 0.86624998
0.53677028 -0.30805945 0.8635
0.54034054 -0.30743513 0.86175001
0.54547298 -0.30770269 0.86250001
0.55029458 -0.30779189 0.86274999
0.55624461 -0.30850542 0.86475003
0.56140542 -0.30877298 0.86549997
0.56624728 -0.30886215 0.86575001
0.57142162 -0.30912971 0.86650002
0.57560676 -0.30886215 0.86575001
0.58078921 -0.30912971 0.86650002
0.58564186 -0.30921891 0.86675
0.59032702 -0.30921891 0.86675
0.59501213 -0.30921891 0.86675
-0.59969729 -0.30453378 0.86675
-0.59501213 -0.30453378 0.86675
-0.59100813 -0.30488512 0.86774999
-0.5876689 -0.30558783 0.86975002
-0.58481079 -0.30655405 0.8725
-0.58075947 -0.30690539 0.87349999
-0.57653242 -0.3071689 0.87424999
-0.57066214 -0.30655405 0.8725
-0.56416214 -0.30558783 0.86975002
-0.55881757 -0.30523649 0.86874998
-0.55348378 -0.30488512 0.86774999
-0.54879326 -0.30488512 0.86774999
-0.54457295 -0.30514863 0.86849999
-0.53925675 -0.30479729 0.86750001
-0.53395134 -0.30444595 0.86650002
-0.52758783 -0.30347973 0.86374998
-0.52110273 -0.30242568 0.86075002
-0.51525003 -0.30172297 0.85874999
-0.51060814 -0.30172297 0.85874999
-0.50655538 -0.30207431 0.85974997
-0.50351351 -0.30304053 0.86250001
-0.49899596 -0.30312839 0.86274999
-0.4941892 -0.30304053 0.86250001
-0.48910135 -0.30277702 0.86175001
-0.48444325 -0.30277702 0.86175001
-0.48034188 -0.30312839 0.86274999
-0.47609189 -0.3033919 0.8635
-0.47156081 -0.30347973 0.86374998
-0.46729729 -0.30374324 0.86449999
-0.46208918 -0.3033919 0.8635
-0.45662704 -0.30286488 0.86199999
-0.4517054 -0.30268919 0.86150002
-0.44652975 -0.30233783 0.86049998
-0.44149324 -0.30207431 0.85974997
-0.43773514 -0.30268919 0.86150002
-0.43370676 -0.30312839 0.86274999
-0.42941621 -0.3033919 0.8635
-0.42437974 -0.30312839 0.86274999
-0.41922972 -0.30277702 0.86175001
-0.41372973 -0.30216217 0.86000001
-0.40943784 -0.30242568 0.86075002
-0.40607837 -0.3033919 0.8635
-0.40280539 -0.30444595 0.86650002
-0.39823648 -0.30453378 0.86675
-0.39309728 -0.30418244 0.86575001
-0.38752028 -0.30347973 0.86374998
-0.38240811 -0.30312839 0.86274999
-0.37763512 -0.30304053 0.86250001
-0.3732973 -0.30330405 0.86325002
-0.36831081 -0.30304053 0.86250001
-0.36322704 -0.30268919 0.86150002
-0.35815406 -0.30233783 0.86049998
-0.3527838 -0.30172297 0.85874999
-0.34804055 -0.30163515 0.8585
-0.3434 -0.30163515 0.8585
-0.33875945 -0.30163515 0.8585
-0.33450812 -0.30198649 0.85949999
-0.32986218 -0.30198649 0.85949999
-0.32587838 -0.30260134 0.86124998
-0.32131621 -0.30268919 0.86150002
-0.31665945 -0.30268919 0.86150002
-0.31164053 -0.30233783 0.86049998
-0.30663243 -0.30198649 0.85949999
-0.30137163 -0.30137163 0.85775
-0.29638919 -0.30102026 0.85675001
-0.29150271 -0.30075675 0.85600001
-0.28712702 -0.30102026 0.85675001
-0.28282568 -0.30137163 0.85775
-0.27851352 -0.30172297 0.85874999
-0.27474865 -0.30268919 0.86150002
-0.27009189 -0.30268919 0.86150002
-0.26512703 -0.30233783 0.86049998
-0.25956756 -0.30128378 0.85750002
-0.25359461 -0.2997027 0.85299999
-0.24818109 -0.29873648 0.85025001
-0.24365677 -0.29882434 0.85049999
-0.23891893 -0.29864866 0.85000002
-0.23418649 -0.29847297 0.8495
-0.23054054 -0.2997027 0.85299999
-0.22732027 -0.30154729 0.85825002
-0.22319999 -0.30225 0.86025
-0.21880406 -0.30260134 0.86124998
-0.21396217 -0.30233783 0.86049998
-0.20888513 -0.30172297 0.85874999
-0.20424324 -0.30172297 0.85874999
-0.19965947 -0.3018108 0.85900003
-0.19507298 -0.30189866 0.85925001
-0.19042838 -0.30189866 0.85925001
-0.186 -0.30225 0.86025
-0.18098108 -0.30163515 0.8585
-0.17618649 -0.30137163 0.85775
-0.1715 -0.30128378 0.85750002
-0.16657297 -0.30075675 0.85600001
-0.16189866 -0.30066893 0.85575002
-0.15741082 -0.30093244 0.85650003
-0.15295947 -0.30128378 0.85750002
-0.1488 -0.30225 0.86025
-0.14435945 -0.30268919 0.86150002
-0.13982433 -0.30295271 0.86224997
-0.13504595 -0.30268919 0.86150002
-0.12997298 -0.30172297 0.85874999
-0.12489325 -0.30066893 0.85575002
-0.12002163 -0.30005407 0.85399997
-0.11530405 -0.29979053 0.85325003
-0.11082162 -0.3001419 0.85425001
-0.10642162 -0.30075675 0.85600001
-0.10209189 -0.30163515 0.8585
-0.09759324 -0.30207431 0.85974997
-0.093135133 -0.30268919 0.86150002
-0.088478379 -0.30268919 0.86150002
-0.083821625 -0.30268919 0.86150002
-0.079164863 -0.30268919 0.86150002
-0.074508108 -0.30268919 0.86150002
-0.069851354 -0.30268919 0.86150002
-0.065118916 -0.30233783 0.86049998
-0.060397297 -0.30198649 0.85949999
-0.055702701 -0.30172297 0.85874999
-0.051060811 -0.30172297 0.85874999
-0.046459459 -0.30198649 0.85949999
-0.041910812 -0.30268919 0.86150002
-0.03732973 -0.30330405 0.86325002
-0.032663513 -0.30330405 0.86325002
-0.027997296 -0.30330405 0.86325002
-0.023283783 -0.30268919 0.86150002
-0.018567568 -0.30172297 0.85874999
-0.01388919 -0.30093244 0.85650003
-0.0092351353 -0.3001419 0.85425001
-0.0046162163 -0.30005407 0.85399997
0 -0.30005407 0.85399997
0.0046256757 -0.30066893 0.85575002
0.0092702704 -0.30128378 0.85750002
0.013909459 -0.30137163 0.85775
0.018524325 -0.30102026 0.85675001
0.023128379 -0.30066893 0.85575002
0.027754053 -0.30066893 0.85575002
0.032351352 -0.30040541 0.85500002
0.037016217 -0.30075675 0.85600001
0.041728377 -0.30137163 0.85775
0.04641892 -0.30172297 0.85874999
0.051060811 -0.30172297 0.85874999
0.055751354 -0.30198649 0.85949999
0.060344595 -0.30172297 0.85874999
0.06498649 -0.30172297 0.85874999
0.06962838 -0.30172297 0.85874999
0.074270271 -0.30172297 0.85874999
0.078981079 -0.30198649 0.85949999
0.083724327 -0.30233783 0.86049998
0.088375673 -0.30233783 0.86049998
0.093135133 -0.30268919 0.86150002
0.097791895 -0.30268919 0.86150002
0.10244865 -0.30268919 0.86150002
0.1071054 -0.30268919 0.86150002
0.11176217 -0.30268919 0.86150002
0.11641892 -0.30268919 0.86150002
0.12107567 -0.30268919 0.86150002
0.12576891 -0.30277702 0.86175001
0.13057838 -0.30312839 0.86274999
0.13535947 -0.3033919 0.8635
0.14002703 -0.3033919 0.8635
0.14465271 -0.30330405 0.86325002
0.14884324 -0.30233783 0.86049998
0.15313783 -0.30163515 0.8585
0.15731892 -0.30075675 0.85600001
0.16194595 -0.30075675 0.85600001
0.16671892 -0.30102026 0.85675001
0.17115 -0.30066893 0.85575002
0.17598109 -0.30102026 0.85675001
0.18061216 -0.30102026 0.85675001
0.18562162 -0.30163515 0.8585
0.1905392 -0.30207431 0.85974997
0.19564053 -0.30277702 0.86175001
0.20070541 -0.3033919 0.8635
0.20567027 -0.30383107 0.86475003
0.21058783 -0.30418244 0.86575001
0.21501891 -0.30383107 0.86475003
0.21893108 -0.30277702 0.86175001
0.22332972 -0.30242568 0.86075002
0.22751892 -0.3018108 0.85900003
0.2318919 -0.30145946 0.85799998
0.23646082 -0.30137163 0.85775
0.24137838 -0.30172297 0.85874999
0.24673648 -0.30260134 0.86124998
0.25146487 -0.30268919 0.86150002
0.25612164 -0.30268919 0.86150002
0.26055136 -0.30242568 0.86075002
0.26466486 -0.3018108 0.85900003
0.2689946 -0.30145946 0.85799998
0.27331352 -0.30110812 0.85699999
0.27794594 -0.30110812 0.85699999
0.28315541 -0.30172297 0.85874999
0.28863513 -0.30260134 0.86124998
0.29337567 -0.30268919 0.86150002
0.29863784 -0.30330405 0.86325002
0.30400676 -0.30400676 0.86524999
0.30904055 -0.30435809 0.86624998
0.31372297 -0.30435809 0.86624998
0.3184973 -0.30444595 0.86650002
0.32252836 -0.30383107 0.86475003
0.32644594 -0.30312839 0.86274999
0.33072567 -0.30277702 0.86175001
0.3347027 -0.30216217 0.86000001
0.33925271 -0.30207431 0.85974997
0.3439 -0.30207431 0.85974997
0.34895271 -0.30242568 0.86075002
0.35391352 -0.30268919 0.86150002
0.35784188 -0.30207431 0.85974997
0.36164594 -0.30137163 0.85775
0.3651081 -0.30040541 0.85500002
0.36940542 -0.3001419 0.85425001
0.37402299 -0.3001419 0.85425001
0.37941623 -0.30075675 0.85600001
0.38527703 -0.30172297 0.85874999
0.39116758 -0.30268919 0.86150002
0.39674324 -0.3033919 0.8635
0.40152702 -0.30347973 0.86374998
0.40666622 -0.30383107 0.86475003
0.41074595 -0.3033919 0.8635
0.41457161 -0.30277702 0.86175001
0.41777027 -0.30172297 0.85874999
0.42105946 -0.30075675 0.85600001
0.42556217 -0.30066893 0.85575002
0.43031353 -0.30075675 0.85600001
0.43671891 -0.30198649 0.85949999
0.4429054 -0.30304053 0.86250001
0.4482162 -0.30347973 0.86374998
0.45340946 -0.30383107 0.86475003
0.45742163 -0.3033919 0.8635
0.46008244 -0.30207431 0.85974997
0.46324325 -0.30110812 0.85699999
0.46692029 -0.30049324 0.85525
0.4725081 -0.30110812 0.85699999
0.47964594 -0.30268919 0.86150002
0.48542702 -0.3033919 0.8635
0.4900946 -0.3033919 0.8635
0.49375945 -0.30277702 0.86175001
0.49726081 -0.30207431 0.85974997
0.50190812 -0.30207431 0.85974997
0.50758648 -0.30268919 0.86150002
0.5135811 -0.30347973 0.86374998
0.52004999 -0.30453378 0.86675
0.52639997 -0.3055 0.86949998
0.53125268 -0.30558783 0.86975002
0.53533781 -0.30523649 0.86874998
0.53925675 -0.30479729 0.86750001
0.54331893 -0.30444595 0.86650002
0.54800272 -0.30444595 0.86650002
0.55284595 -0.30453378 0.86675
0.55865675 -0.30514863 0.86849999
0.56335133 -0.30514863 0.86849999
0.56820947 -0.30523649 0.86874998
0.57290542 -0.30523649 0.86874998
0.57760137 -0.30523649 0.86874998
0.58229727 -0.30523649 0.86874998
0.58648646 -0.30497298 0.86799997
0.59100813 -0.30488512 0.86774999
0.59518379 -0.30462161 0.86699998
-0.60194594 -0.30097297 0.87
-0.59724325 -0.30097297 0.87
-0.59373242 -0.30157837 0.87175
-0.59037161 -0.30227026 0.87374997
-0.58698916 -0.30296215 0.87575001
-0.58325267 -0.30348107 0.87725002
-0.57851082 -0.30348107 0.87725002
-0.57262439 -0.3028757 0.87550002
-0.56627029 -0.30201083 0.87300003
-0.56122971 -0.30183783 0.8725
-0.55555677 -0.30131891 0.87099999
-0.55069053 -0.30123243 0.87075001
-0.54598379 -0.30123243 0.87075001
-0.54127699 -0.30123243 0.87075001
-0.53595406 -0.30088648 0.86975002
-0.53048921 -0.30045405 0.86849999
-0.52367568 -0.29924324 0.86500001
-0.51765001 -0.29846486 0.86274999
-0.51298648 -0.29846486 0.86274999
-0.51009053 -0.2995027 0.86575001
-0.50760001 -0.3008 0.86949998
-0.50333375 -0.30105945 0.87024999
-0.49762702 -0.30045405 0.86849999
-0.49193919 -0.29984865 0.86675
-0.48669189 -0.2995027 0.86575001
-0.48201215 -0.2995027 0.86575001
-0.47733244 -0.2995027 0.86575001
-0.4726527 -0.2995027 0.86575001
-0.46783784 -0.29941621 0.86549997
-0.46275809 -0.29915676 0.86475003
-0.45742163 -0.29872432 0.8635
-0.45222974 -0.29837838 0.86250001
-0.44756758 -0.29837838 0.86250001
-0.44303378 -0.29846486 0.86274999
-0.43938649 -0.29915676 0.86475003
-0.43521485 -0.2995027 0.86575001
-0.43053514 -0.2995027 0.86575001
-0.42499459 -0.2988973 0.86400002
-0.41935134 -0.29820541 0.86199999
-0.41372973 -0.29751351 0.86000001
-0.40920001 -0.2976 0.86025
-0.40619594 -0.29881081 0.86374998
-0.40303785 -0.29993513 0.86699998
-0.39949998 -0.3008 0.86949998
-0.39445946 -0.30054054 0.86874998
-0.38931486 -0.30019459 0.86774999
-0.38418108 -0.29984865 0.86675
-0.37905809 -0.2995027 0.86575001
-0.37394595 -0.29915676 0.86475003
-0.36873785 -0.29872432 0.8635
-0.36364865 -0.29837838 0.86250001
-0.35867432 -0.29811892 0.86175001
-0.35360542 -0.29777297 0.86075002
-0.34895271 -0.29777297 0.86075002
-0.34459999 -0.29803243 0.86150002
-0.34004191 -0.29811892 0.86175001
-0.33567569 -0.29837838 0.86250001
-0.33139729 -0.29872432 0.8635
-0.32748649 -0.29941621 0.86549997
-0.32252836 -0.29915676 0.86475003
-0.31812972 -0.29941621 0.86549997
-0.31345135 -0.29941621 0.86549997
-0.30850542 -0.29915676 0.86475003
-0.3033919 -0.29872432 0.8635
-0.29863784 -0.29863784 0.86325002
-0.29371622 -0.29837838 0.86250001
-0.28880271 -0.29811892 0.86175001
-0.28414458 -0.29811892 0.86175001
-0.28005406 -0.29872432 0.8635
-0.27578515 -0.29915676 0.86475003
-0.27158108 -0.29967567 0.86624998
-0.26605135 -0.29872432 0.8635
-0.2607027 -0.29794595 0.86124998
-0.25470945 -0.29638919 0.85675001
-0.24971351 -0.29595676 0.85549998
-0.24487433 -0.2956973 0.85474998
-0.24032433 -0.29578379 0.85500002
-0.23611622 -0.29630271 0.85650003
-0.2325 -0.2976 0.86025
-0.22818108 -0.29803243 0.86150002
-0.22352433 -0.29803243 0.86150002
-0.21886757 -0.29803243 0.86150002
-0.21421081 -0.29803243 0.86150002
-0.20973648 -0.29829189 0.86224997
-0.20495676 -0.29811892 0.86175001
-0.20047297 -0.29837838 0.86250001
-0.19603784 -0.29872432 0.8635
-0.19137026 -0.29872432 0.8635
-0.1867027 -0.29872432 0.8635
-0.18203513 -0.29872432 0.8635
-0.17716216 -0.29837838 0.86250001
-0.1723 -0.29803243 0.86150002
-0.1671081 -0.29708108 0.85874999
-0.16208784 -0.29638919 0.85675001
-0.15727298 -0.29604325 0.85575002
-0.15251352 -0.29578379 0.85500002
-0.14832433 -0.29664865 0.85750002
-0.14389865 -0.29708108 0.85874999
-0.13954054 -0.29768649 0.86049998
-0.13504595 -0.29803243 0.86150002
-0.13038918 -0.29803243 0.86150002
-0.12533109 -0.29708108 0.85874999
-0.12054865 -0.29673514 0.85775
-0.1160473 -0.29708108 0.85874999
-0.11172973 -0.29794595 0.86124998
-0.1071054 -0.29803243 0.86150002
-0.10256757 -0.29837838 0.86250001
-0.098018922 -0.29872432 0.8635
-0.093459457 -0.29907027 0.86449999
-0.088683784 -0.29872432 0.8635
-0.084016219 -0.29872432 0.8635
-0.079348646 -0.29872432 0.8635
-0.074702702 -0.29881081 0.86374998
-0.070033781 -0.29881081 0.86374998
-0.065345943 -0.29872432 0.8635
-0.060678378 -0.29872432 0.8635
-0.055881083 -0.29803243 0.86150002
-0.051179729 -0.29777297 0.86075002
-0.046527028 -0.29777297 0.86075002
-0.041910812 -0.29803243 0.86150002
-0.037264865 -0.29811892 0.86175001
-0.032672971 -0.29872432 0.8635
-0.028070271 -0.29941621 0.86549997
-0.023412162 -0.29967567 0.86624998
-0.01867027 -0.29872432 0.8635
-0.013970271 -0.29803243 0.86150002
-0.0092837838 -0.29708108 0.85874999
-0.0046405406 -0.2969946 0.8585
0 -0.29708108 0.85874999
0.0046554054 -0.29794595 0.86124998
0.0093324324 -0.29863784 0.86325002
0.013986487 -0.29837838 0.86250001
0.018610811 -0.29777297 0.86075002
0.023216216 -0.29716757 0.85900003
0.027851351 -0.29708108 0.85874999
0.032464866 -0.29682162 0.85799998
