# .PCD v0.7 - Point Cloud Data file format
VERSION 0.7
FIELDS x y z
SIZE 4 4 4
TYPE F F F
COUNT 1 1 1
WIDTH 1489
HEIGHT 1
VIEWPOINT 0 0 0 1 0 0 0
POINTS 1489
DATA ascii
-0.34015256 0.11433699 0.52880859
-0.33729413 0.11433699 0.52880859
-0.3344357 0.11433699 0.52880859
-0.33157727 0.11433699 0.52880859
-0.3281118 0.11412584 0.52783203
-0.32525864 0.11412584 0.52783203
-0.32240552 0.11412584 0.52783203
-0.31955236 0.11412584 0.52783203
-0.31728515 0.11433699 0.52880859
-0.31384605 0.11412584 0.52783203
-0.31041753 0.11391469 0.52685547
-0.30699956 0.11370354 0.52587891
-0.30415699 0.11370354 0.52587891
-0.30131438 0.11370354 0.52587891
-0.29902607 0.11391469 0.52685547
-0.29672718 0.11412584 0.52783203
-0.29333034 0.11391469 0.52685547
-0.28994402 0.11370354 0.52587891
-0.28656831 0.1134924 0.52490234
-0.28320312 0.11328125 0.52392578
-0.2803711 0.11328125 0.52392578
-0.27805638 0.1134924 0.52490234
-0.27521908 0.1134924 0.52490234
-0.27238178 0.1134924 0.52490234
-0.27004591 0.11370354 0.52587891
-0.26769954 0.11391469 0.52685547
-0.26485166 0.11391469 0.52685547
-0.26200378 0.11391469 0.52685547
-0.25915593 0.11391469 0.52685547
-0.25583297 0.11370354 0.52587891
-0.25299039 0.11370354 0.52587891
-0.25061232 0.11391469 0.52685547
-0.24822371 0.11412584 0.52783203
-0.24537057 0.11412584 0.52783203
-0.24251741 0.11412584 0.52783203
-0.23922086 0.11391469 0.52685547
-0.23593485 0.11370354 0.52587891
-0.23309226 0.11370354 0.52587891
-0.23024967 0.11370354 0.52587891
-0.22740708 0.11370354 0.52587891
-0.22539854 0.11412584 0.52783203
-0.22254539 0.11412584 0.52783203
-0.21969225 0.11412584 0.52783203
-0.21643792 0.11391469 0.52685547
-0.21359006 0.11391469 0.52685547
-0.21074218 0.11391469 0.52685547
-0.20789431 0.11391469 0.52685547
-0.20466638 0.11370354 0.52587891
-0.20144902 0.1134924 0.52490234
-0.19824219 0.11328125 0.52392578
-0.19541016 0.11328125 0.52392578
-0.19257814 0.11328125 0.52392578
-0.1897461 0.11328125 0.52392578
-0.18691407 0.11328125 0.52392578
-0.18408203 0.11328125 0.52392578
-0.18125001 0.11328125 0.52392578
-0.17841798 0.11328125 0.52392578
-0.17558594 0.11328125 0.52392578
-0.17243192 0.1130701 0.52294922
-0.16960515 0.1130701 0.52294922
-0.1667784 0.1130701 0.52294922
-0.16425782 0.11328125 0.52392578
-0.16142578 0.11328125 0.52392578
-0.15829815 0.1130701 0.52294922
-0.15518107 0.11285895 0.52197266
-0.15235959 0.11285895 0.52197266
-0.14953811 0.11285895 0.52197266
-0.14699113 0.1130701 0.52294922
-0.14470281 0.1134924 0.52490234
-0.14186551 0.1134924 0.52490234
-0.13902819 0.1134924 0.52490234
-0.13593751 0.11328125 0.52392578
-0.13285737 0.1130701 0.52294922
-0.1297878 0.11285895 0.52197266
-0.12672879 0.1126478 0.52099609
-0.12391259 0.1126478 0.52099609
-0.12132338 0.11285895 0.52197266
-0.11872361 0.1130701 0.52294922
-0.11611328 0.11328125 0.52392578
-0.11328125 0.11328125 0.52392578
-0.11044922 0.11328125 0.52392578
-0.10721601 0.11285895 0.52197266
-0.10419922 0.1126478 0.52099609
-0.10119299 0.11243665 0.52001953
-0.098382071 0.11243665 0.52001953
-0.09557116 0.11243665 0.52001953
-0.092760243 0.11243665 0.52001953
-0.090118244 0.1126478 0.52099609
-0.087138407 0.11243665 0.52001953
-0.084169127 0.1122255 0.51904297
-0.081210412 0.11201435 0.51806641
-0.078410052 0.11201435 0.51806641
-0.075609691 0.11201435 0.51806641
-0.072809331 0.11201435 0.51806641
-0.070140943 0.1122255 0.51904297
-0.067335308 0.1122255 0.51904297
-0.064529665 0.1122255 0.51904297
-0.061724029 0.1122255 0.51904297
-0.058807537 0.11201435 0.51806641
-0.056007177 0.11201435 0.51806641
-0.05320682 0.11201435 0.51806641
-0.050311442 0.1118032 0.51708984
-0.047516365 0.1118032 0.51708984
-0.044721283 0.1118032 0.51708984
-0.041926201 0.1118032 0.51708984
-0.039131124 0.1118032 0.51708984
-0.036404666 0.11201435 0.51806641
-0.033604309 0.11201435 0.51806641
-0.030803949 0.11201435 0.51806641
-0.027950801 0.1118032 0.51708984
-0.025155721 0.1118032 0.51708984
-0.022318412 0.11159205 0.51611328
-0.019565562 0.1118032 0.51708984
-0.016770482 0.1118032 0.51708984
-0.014001794 0.11201435 0.51806641
-0.011201436 0.11201435 0.51806641
-0.008385241 0.1118032 0.51708984
-0.0055901604 0.1118032 0.51708984
-0.0027950802 0.1118032 0.51708984
0 0.1118032 0.51708984
0.0027950802 0.1118032 0.51708984
0.0055796029 0.11159205 0.51611328
0.0083694048 0.11159205 0.51611328
0.011138091 0.1113809 0.51513672
0.013922613 0.1113809 0.51513672
0.016707137 0.1113809 0.51513672
0.019491659 0.1113809 0.51513672
0.022276182 0.1113809 0.51513672
0.025060704 0.1113809 0.51513672
0.027845226 0.1113809 0.51513672
0.03062975 0.1113809 0.51513672
0.033414274 0.1113809 0.51513672
0.036198795 0.1113809 0.51513672
0.038983319 0.1113809 0.51513672
0.041767839 0.1113809 0.51513672
0.044552363 0.1113809 0.51513672
0.047247149 0.11116976 0.51416016
0.049931377 0.11095862 0.51318359
0.052705344 0.11095862 0.51318359
0.05547931 0.11095862 0.51318359
0.058253273 0.11095862 0.51318359
0.06102724 0.11095862 0.51318359
0.063801207 0.11095862 0.51318359
0.066701859 0.11116976 0.51416016
0.069613069 0.1113809 0.51513672
0.07239759 0.1113809 0.51513672
0.075039588 0.11116976 0.51416016
0.077818833 0.11116976 0.51416016
0.080444999 0.11095862 0.51318359
0.0830606 0.11074747 0.51220703
0.085665651 0.11053632 0.51123047
0.088429056 0.11053632 0.51123047
0.09093117 0.1102196 0.50976562
0.093686655 0.1102196 0.50976562
0.09671928 0.11053632 0.51123047
0.099482685 0.11053632 0.51123047
0.10244141 0.11074747 0.51220703
0.1052101 0.11074747 0.51220703
0.10797878 0.11074747 0.51220703
0.1102196 0.1102196 0.50976562
0.11297508 0.1102196 0.50976562
0.11550887 0.11000845 0.50878906
0.11848607 0.1102196 0.50976562
0.12182222 0.11074747 0.51220703
0.12482844 0.11095862 0.51318359
0.12735958 0.11074747 0.51220703
0.12988017 0.11053632 0.51123047
0.13226351 0.1102196 0.50976562
0.13476035 0.11000845 0.50878906
0.13751055 0.11000845 0.50878906
0.14026077 0.11000845 0.50878906
0.14301097 0.11000845 0.50878906
0.14576119 0.11000845 0.50878906
0.14822635 0.1097973 0.5078125
0.15068096 0.10958615 0.50683594
0.15342061 0.10958615 0.50683594
0.15616027 0.10958615 0.50683594
0.15889992 0.10958615 0.50683594
0.16163957 0.10958615 0.50683594
0.1640625 0.109375 0.50585938
0.16647486 0.10916385 0.50488281
0.16920397 0.10916385 0.50488281
0.17193305 0.10916385 0.50488281
0.175 0.109375 0.50585938
0.1784206 0.1097973 0.5078125
0.18116555 0.1097973 0.5078125
0.18426415 0.11000845 0.50878906
0.18629645 0.10958615 0.50683594
0 0 0
0 0 0
0 0 0
0 0 0
0 0 0
0 0 0
0 0 0
0 0 0
0 0 0
0 0 0
0 0 0
0.21663852 0.10831926 0.50097656
0.22020164 0.10874155 0.50292969
0.22335303 0.1089527 0.50390625
0.22607686 0.1089527 0.50390625
0.22880067 0.1089527 0.50390625
0.23197317 0.10916385 0.50488281
0.23470227 0.10916385 0.50488281
0.23743138 0.10916385 0.50488281
0.23969594 0.1089527 0.50390625
0.24241975 0.1089527 0.50390625
0.24514358 0.1089527 0.50390625
0.24786739 0.1089527 0.50390625
0.25059122 0.1089527 0.50390625
0.25331503 0.1089527 0.50390625
0.25653505 0.10916385 0.50488281
0.25926414 0.10916385 0.50488281
0.26249999 0.109375 0.50585938
0.26523438 0.109375 0.50585938
0.26848605 0.10958615 0.50683594
0.27122572 0.10958615 0.50683594
0.27396536 0.10958615 0.50683594
0.27670503 0.10958615 0.50683594
0.27890626 0.109375 0.50585938
0.28109691 0.10916385 0.50488281
0.283277 0.1089527 0.50390625
0.28544655 0.10874155 0.50292969
0.28816509 0.10874155 0.50292969
0.29088366 0.10874155 0.50292969
0.2936022 0.10874155 0.50292969
0.29632074 0.10874155 0.50292969
0.29903927 0.10874155 0.50292969
0.30234373 0.1089527 0.50390625
0.30506757 0.1089527 0.50390625
0.30779138 0.1089527 0.50390625
0.3105152 0.1089527 0.50390625
0.31323901 0.1089527 0.50390625
0.3153505 0.10874155 0.50292969
0.31806904 0.10874155 0.50292969
0.32016471 0.10853041 0.50195312
0.32350612 0.10874155 0.50292969
0.3268581 0.1089527 0.50390625
0.32958192 0.1089527 0.50390625
0.33230573 0.1089527 0.50390625
0.33438027 0.10874155 0.50292969
0.33644426 0.10853041 0.50195312
0.33783785 0.10810811 0.5
0.34054056 0.10810811 0.5
0.34324324 0.10810811 0.5
-0.36385134 0.11654613 0.52587891
-0.36100876 0.11654613 0.52587891
-0.35883129 0.11676256 0.52685547
-0.35664326 0.11697899 0.52783203
-0.3537901 0.11697899 0.52783203
-0.35093698 0.11697899 0.52783203
-0.34743983 0.11676256 0.52685547
-0.34459195 0.11676256 0.52685547
-0.34174407 0.11676256 0.52685547
-0.33889621 0.11676256 0.52685547
-0.33604833 0.11676256 0.52685547
-0.33320048 0.11676256 0.52685547
-0.3303526 0.11676256 0.52685547
-0.32689768 0.11654613 0.52587891
-0.32345334 0.11632971 0.52490234
-0.32061604 0.11632971 0.52490234
-0.31777874 0.11632971 0.52490234
-0.31494141 0.11632971 0.52490234
-0.31210411 0.11632971 0.52490234
-0.30926681 0.11632971 0.52490234
-0.30585939 0.11611328 0.52392578
-0.30246252 0.11589686 0.52294922
-0.29907623 0.11568043 0.52197266
-0.29625475 0.11568043 0.52197266
-0.29398227 0.11589686 0.52294922
-0.29115552 0.11589686 0.52294922
-0.28779033 0.11568043 0.52197266
-0.28496885 0.11568043 0.52197266
-0.28161952 0.115464 0.52099609
-0.27880332 0.115464 0.52099609
-0.27598712 0.115464 0.52099609
-0.27317092 0.115464 0.52099609
-0.27136827 0.11589686 0.52294922
-0.26904297 0.11611328 0.52392578
-0.26670715 0.11632971 0.52490234
-0.26386985 0.11632971 0.52490234
-0.26103252 0.11632971 0.52490234
-0.25771484 0.11611328 0.52392578
-0.25440773 0.11589686 0.52294922
-0.25205079 0.11611328 0.52392578
-0.24921876 0.11611328 0.52392578
-0.24684598 0.11632971 0.52490234
-0.24400866 0.11632971 0.52490234
-0.24072267 0.11611328 0.52392578
-0.23789063 0.11611328 0.52392578
-0.23462047 0.11589686 0.52294922
-0.23179372 0.11589686 0.52294922
-0.22896697 0.11589686 0.52294922
-0.2257179 0.11568043 0.52197266
-0.22331345 0.11589686 0.52294922
-0.22007497 0.11568043 0.52197266
-0.21765995 0.11589686 0.52294922
-0.2148332 0.11589686 0.52294922
-0.21161054 0.11568043 0.52197266
-0.20878907 0.11568043 0.52197266
-0.20596759 0.11568043 0.52197266
-0.20314611 0.11568043 0.52197266
-0.20032464 0.11568043 0.52197266
-0.19713366 0.115464 0.52099609
-0.19431746 0.115464 0.52099609
-0.19150127 0.115464 0.52099609
-0.18868507 0.115464 0.52099609
-0.18552049 0.11524757 0.52001953
-0.18270956 0.11524757 0.52001953
-0.18057433 0.11568043 0.52197266
-0.17742029 0.115464 0.52099609
-0.1746041 0.115464 0.52099609
-0.1714659 0.11524757 0.52001953
-0.16865498 0.11524757 0.52001953
-0.16584407 0.11524757 0.52001953
-0.16303316 0.11524757 0.52001953
-0.16022223 0.11524757 0.52001953
-0.15741132 0.11524757 0.52001953
-0.15431008 0.11503115 0.51904297
-0.15150443 0.11503115 0.51904297
-0.14869879 0.11503115 0.51904297
-0.14616765 0.11524757 0.52001953
-0.14362594 0.115464 0.52099609
-0.14080976 0.115464 0.52099609
-0.13799356 0.115464 0.52099609
-0.13517737 0.115464 0.52099609
-0.13211307 0.11524757 0.52001953
-0.12930216 0.11524757 0.52001953
-0.12649123 0.11524757 0.52001953
-0.12368032 0.11524757 0.52001953
-0.12109639 0.115464 0.52099609
-0.11828019 0.115464 0.52099609
-0.115464 0.115464 0.52099609
-0.11243665 0.11524757 0.52001953
-0.10941987 0.11503115 0.51904297
-0.10641364 0.11481471 0.51806641
-0.10341797 0.11459829 0.51708984
-0.10062288 0.11459829 0.51708984
-0.097827807 0.11459829 0.51708984
-0.095212206 0.11481471 0.51806641
-0.09258604 0.11503115 0.51904297
-0.089780405 0.11503115 0.51904297
-0.086811125 0.11481471 0.51806641
-0.083852403 0.11459829 0.51708984
-0.080904245 0.11438186 0.51611328
-0.078114443 0.11438186 0.51611328
-0.07532464 0.11438186 0.51611328
-0.072534837 0.11438186 0.51611328
-0.069877006 0.11459829 0.51708984
-0.067081928 0.11459829 0.51708984
-0.064286843 0.11459829 0.51708984
-0.061375633 0.11438186 0.51611328
-0.05858583 0.11438186 0.51611328
-0.055796027 0.11438186 0.51611328
-0.053006228 0.11438186 0.51611328
-0.050216425 0.11438186 0.51611328
-0.047336888 0.11416543 0.51513672
-0.044467904 0.113949 0.51416016
-0.041767839 0.11416543 0.51513672
-0.038983319 0.11416543 0.51513672
-0.036267418 0.11438186 0.51611328
-0.033477619 0.11438186 0.51611328
-0.03062975 0.11416543 0.51513672
-0.027792439 0.113949 0.51416016
-0.025013195 0.113949 0.51416016
-0.022191724 0.11373258 0.51318359
-0.019417759 0.11373258 0.51318359
-0.016675465 0.113949 0.51416016
-0.013922613 0.11416543 0.51513672
-0.011138091 0.11416543 0.51513672
-0.0083535686 0.11416543 0.51513672
-0.005558488 0.113949 0.51416016
-0.002779244 0.113949 0.51416016
0 0.113949 0.51416016
0.002779244 0.113949 0.51416016
0.005558488 0.113949 0.51416016
0.0083377324 0.113949 0.51416016
0.011095862 0.11373258 0.51318359
0.013869828 0.11373258 0.51318359
0.016643792 0.11373258 0.51318359
0.019380808 0.11351616 0.51220703
0.022149494 0.11351616 0.51220703
0.024870671 0.11329973 0.51123047
0.02763408 0.11329973 0.51123047
0.030397488 0.11329973 0.51123047
0.03322424 0.11351616 0.51220703
0.035992928 0.11351616 0.51220703
0.038761616 0.11351616 0.51220703
0.0415303 0.11351616 0.51220703
0.044214528 0.11329973 0.51123047
0.046843328 0.11297508 0.50976562
0.049598817 0.11297508 0.50976562
0.05235431 0.11297508 0.50976562
0.055004224 0.11275866 0.50878906
0.057754435 0.11275866 0.50878906
0.060504645 0.11275866 0.50878906
0.06337627 0.11297508 0.50976562
0.066131756 0.11297508 0.50976562
0.068887249 0.11297508 0.50976562
0.071642734 0.11297508 0.50976562
0.074398227 0.11297508 0.50976562
0.07715372 0.11297508 0.50976562
0.079756126 0.11275866 0.50878906
0.082347974 0.11254223 0.5078125
0.085092902 0.11254223 0.5078125
0.087668918 0.1123258 0.50683594
0.090408571 0.1123258 0.50683594
0.093327701 0.11254223 0.5078125
0.096072637 0.11254223 0.5078125
0.099007599 0.11275866 0.50878906
0.10195313 0.11297508 0.50976562
0.10470862 0.11297508 0.50976562
0.10725824 0.11275866 0.50878906
0.1097973 0.11254223 0.5078125
0.1123258 0.1123258 0.50683594
0.11484375 0.11210937 0.50585938
0.11757813 0.11210937 0.50585938
0.12077703 0.11254223 0.5078125
0.12399705 0.11297508 0.50976562
0.12675254 0.11297508 0.50976562
0.12901182 0.11254223 0.5078125
0.13150337 0.1123258 0.50683594
0.13398437 0.11210937 0.50585938
0.13698268 0.1123258 0.50683594
0.13972233 0.1123258 0.50683594
0.14273648 0.11254223 0.5078125
0.14520164 0.1123258 0.50683594
0.14765625 0.11210937 0.50585938
0.15010029 0.11189295 0.50488281
0.15282939 0.11189295 0.50488281
0.15555848 0.11189295 0.50488281
0.15828758 0.11189295 0.50488281
0.16101667 0.11189295 0.50488281
0.16342905 0.11167651 0.50390625
0.16615286 0.11167651 0.50390625
0.1685494 0.11146009 0.50292969
0.17160051 0.11167651 0.50390625
0.17398648 0.11146009 0.50292969
0.17704813 0.11167651 0.50390625
0.17977196 0.11167651 0.50390625
0 0 0
0 0 0
0 0 0
0 0 0
0 0 0
0 0 0
0 0 0
0 0 0
0 0 0
0 0 0
0 0 0
0 0 0
0.21184544 0.1099451 0.49609375
0.21537162 0.11037796 0.49804688
0.21891892 0.11081082 0.5
0.22205448 0.11102724 0.50097656
0.22520059 0.11124367 0.50195312
0.22791386 0.11124367 0.50195312
0.23062712 0.11124367 0.50195312
0.23334038 0.11124367 0.50195312
0.23605365 0.11124367 0.50195312
0.23830238 0.11102724 0.50097656
0.24101035 0.11102724 0.50097656
0.24371834 0.11102724 0.50097656
0.24642631 0.11102724 0.50097656
0.24961995 0.11124367 0.50195312
0.25233319 0.11124367 0.50195312
0.25504646 0.11124367 0.50195312
0.25775972 0.11124367 0.50195312
0.26047298 0.11124367 0.50195312
0.26369825 0.11146009 0.50292969
0.26641679 0.11146009 0.50292969
0.26913533 0.11146009 0.50292969
0.27238175 0.11167651 0.50390625
0.27510557 0.11167651 0.50390625
0.27729094 0.11146009 0.50292969
0.27946579 0.11124367 0.50195312
0.28108108 0.11081082 0.5
0.28378379 0.11081082 0.5
0.28648651 0.11081082 0.5
0.28918919 0.11081082 0.5
0.29246199 0.11102724 0.50097656
0.29574537 0.11124367 0.50195312
0.29845864 0.11124367 0.50195312
0.3011719 0.11124367 0.50195312
0.30388516 0.11124367 0.50195312
0.3060019 0.11102724 0.50097656
0.30810812 0.11081082 0.5
0.31020376 0.11059438 0.49902344
0.3129012 0.11059438 0.49902344
0.31559861 0.11059438 0.49902344
0.31829605 0.11059438 0.49902344
0.32162163 0.11081082 0.5
0.32495779 0.11102724 0.50097656
0.3283045 0.11124367 0.50195312
0.33037373 0.11102724 0.50097656
0.33243245 0.11081082 0.5
0.33448058 0.11059438 0.49902344
0.33651817 0.11037796 0.49804688
0.3392103 0.11037796 0.49804688
0.34190246 0.11037796 0.49804688
-0.36250001 0.11894532 0.52392578
-0.35966799 0.11894532 0.52392578
-0.35617083 0.11872361 0.52294922
-0.35400391 0.11894532 0.52392578
-0.35117188 0.11894532 0.52392578
-0.34833986 0.11894532 0.52392578
-0.34486383 0.11872361 0.52294922
-0.34203705 0.11872361 0.52294922
-0.33984375 0.11894532 0.52392578
-0.33701172 0.11894532 0.52392578
-0.3341797 0.11894532 0.52392578
-0.33073005 0.11872361 0.52294922
-0.3279033 0.11872361 0.52294922
-0.32446951 0.1185019 0.52197266
-0.32164803 0.1185019 0.52197266
-0.31942305 0.11872361 0.52294922
-0.3165963 0.11872361 0.52294922
-0.31376955 0.11872361 0.52294922
-0.3109428 0.11872361 0.52294922
-0.30811605 0.11872361 0.52294922
-0.30471918 0.1185019 0.52197266
-0.30133289 0.11828019 0.52099609
-0.29795715 0.11805849 0.52001953
-0.29514623 0.11805849 0.52001953
-0.2923353 0.11805849 0.52001953
-0.28952438 0.11805849 0.52001953
-0.28671348 0.11805849 0.52001953
-0.28390256 0.11805849 0.52001953
-0.28056377 0.11783678 0.51904297
-0.27775812 0.11783678 0.51904297
-0.27546981 0.11805849 0.52001953
-0.27265888 0.11805849 0.52001953
-0.27035475 0.11828019 0.52099609
-0.26753855 0.11828019 0.52099609
-0.26472235 0.11828019 0.52099609
-0.26190615 0.11828019 0.52099609
-0.25908995 0.11828019 0.52099609
-0.25579339 0.11805849 0.52001953
-0.25298247 0.11805849 0.52001953
-0.25017157 0.11805849 0.52001953
-0.24782518 0.11828019 0.52099609
-0.24454972 0.11805849 0.52001953
-0.24173881 0.11805849 0.52001953
-0.2384792 0.11783678 0.51904297
-0.23523015 0.11761507 0.51806641
-0.23242979 0.11761507 0.51806641
-0.23006229 0.11783678 0.51904297
-0.22768423 0.11805849 0.52001953
-0.2248733 0.11805849 0.52001953
-0.22164537 0.11783678 0.51904297
-0.21883973 0.11783678 0.51904297
-0.2160341 0.11783678 0.51904297
-0.21362965 0.11805849 0.52001953
-0.21081872 0.11805849 0.52001953
-0.20800781 0.11805849 0.52001953
-0.2051969 0.11805849 0.52001953
-0.20238598 0.11805849 0.52001953
-0.19957507 0.11805849 0.52001953
-0.19676414 0.11805849 0.52001953
-0.193589 0.11783678 0.51904297
-0.19042441 0.11761507 0.51806641
-0.18762405 0.11761507 0.51806641
-0.18482369 0.11761507 0.51806641
-0.18202333 0.11761507 0.51806641
-0.17922297 0.11761507 0.51806641
-0.17642261 0.11761507 0.51806641
-0.17362225 0.11761507 0.51806641
-0.17049989 0.11739337 0.51708984
-0.16738808 0.11717166 0.51611328
-0.16459829 0.11717166 0.51611328
-0.16180849 0.11717166 0.51611328
-0.15931956 0.11739337 0.51708984
-0.15652449 0.11739337 0.51708984
-0.15372941 0.11739337 0.51708984
-0.15093432 0.11739337 0.51708984
-0.14813925 0.11739337 0.51708984
-0.14534417 0.11739337 0.51708984
-0.14254908 0.11739337 0.51708984
-0.13975401 0.11739337 0.51708984
-0.13721758 0.11761507 0.51806641
-0.13441724 0.11761507 0.51806641
-0.13161688 0.11761507 0.51806641
-0.12881652 0.11761507 0.51806641
-0.12625369 0.11783678 0.51904297
-0.12368032 0.11805849 0.52001953
-0.12086941 0.11805849 0.52001953
-0.11783678 0.11783678 0.51904297
-0.11481471 0.11761507 0.51806641
-0.11159205 0.11717166 0.51611328
-0.10880226 0.11717166 0.51611328
-0.10581186 0.11694995 0.51513672
-0.10302734 0.11694995 0.51513672
-0.10024282 0.11694995 0.51513672
-0.097458296 0.11694995 0.51513672
-0.094673775 0.11694995 0.51513672
-0.091889247 0.11694995 0.51513672
-0.089273646 0.11717166 0.51611328
-0.086483844 0.11717166 0.51611328
-0.083694041 0.11717166 0.51611328
-0.080751158 0.11694995 0.51513672
-0.077966638 0.11694995 0.51513672
-0.075039588 0.11672825 0.51416016
-0.072260343 0.11672825 0.51416016
-0.069481097 0.11672825 0.51416016
-0.066701859 0.11672825 0.51416016
-0.063922614 0.11672825 0.51416016
-0.06102724 0.11650655 0.51318359
-0.058253273 0.11650655 0.51318359
-0.05547931 0.11650655 0.51318359
-0.052705344 0.11650655 0.51318359
-0.050026391 0.11672825 0.51416016
-0.047247149 0.11672825 0.51416016
-0.044383448 0.11650655 0.51318359
-0.041609481 0.11650655 0.51318359
-0.038835518 0.11650655 0.51318359
-0.036130171 0.11672825 0.51416016
-0.03335093 0.11672825 0.51416016
-0.03051362 0.11650655 0.51318359
-0.027686868 0.11628484 0.51220703
-0.024870671 0.11606313 0.51123047
-0.022107264 0.11606313 0.51123047
-0.019343857 0.11606313 0.51123047
-0.016580448 0.11606313 0.51123047
-0.013843434 0.11628484 0.51220703
-0.011074747 0.11628484 0.51220703
-0.00830606 0.11628484 0.51220703
-0.0055373735 0.11628484 0.51220703
-0.002763408 0.11606313 0.51123047
0 0.11606313 0.51123047
0.002763408 0.11606313 0.51123047
0.005526816 0.11606313 0.51123047
0.0082902238 0.11606313 0.51123047
0.01102196 0.11573058 0.50976562
0.01377745 0.11573058 0.50976562
0.016501267 0.11550887 0.50878906
0.019251479 0.11550887 0.50878906
0.021959459 0.11528716 0.5078125
0.024656883 0.11506546 0.50683594
0.027396537 0.11506546 0.50683594
0.030194256 0.11528716 0.5078125
0.032939188 0.11528716 0.5078125
0.035752743 0.11550887 0.50878906
0.03857686 0.11573058 0.50976562
0.041332349 0.11573058 0.50976562
0.044003379 0.11550887 0.50878906
0.046663851 0.11528716 0.5078125
0.049408782 0.11528716 0.5078125
0.052053422 0.11506546 0.50683594
0.054793075 0.11506546 0.50683594
0.057532728 0.11506546 0.50683594
0.060272381 0.11506546 0.50683594
0.063012034 0.11506546 0.50683594
0.065751687 0.11506546 0.50683594
0.06849134 0.11506546 0.50683594
0.071230993 0.11506546 0.50683594
0.073970653 0.11506546 0.50683594
0.076710306 0.11506546 0.50683594
0.079449959 0.11506546 0.50683594
0.08203125 0.11484375 0.50585938
0.084765621 0.11484375 0.50585938
0.087331079 0.11462204 0.50488281
0.090060174 0.11462204 0.50488281
0.09278927 0.11462204 0.50488281
0.095518366 0.11462204 0.50488281
0.098437496 0.11484375 0.50585938
0.10117187 0.11484375 0.50585938
0.10390625 0.11484375 0.50585938
0.10664062 0.11484375 0.50585938
0.10916385 0.11462204 0.50488281
0.11167651 0.11440033 0.50390625
0.11417863 0.11417863 0.50292969
0.11667019 0.11395693 0.50195312
0.1196157 0.11417863 0.50292969
0.12257179 0.11440033 0.50390625
0.12578125 0.11484375 0.50585938
0.12826753 0.11462204 0.50488281
0.13074324 0.11440033 0.50390625
0.13346706 0.11440033 0.50390625
0.13619088 0.11440033 0.50390625
0.13918391 0.11462204 0.50488281
0.141913 0.11462204 0.50488281
0.1446421 0.11462204 0.50488281
0.1473712 0.11462204 0.50488281
0.14980996 0.11440033 0.50390625
0.15253378 0.11440033 0.50390625
0.15495671 0.11417863 0.50292969
0.15767525 0.11417863 0.50292969
0.16039379 0.11417863 0.50292969
0.16311233 0.11417863 0.50292969
0.16583087 0.11417863 0.50292969
0.16822213 0.11395693 0.50195312
0.17060283 0.11373522 0.50097656
0.17263514 0.11329181 0.49902344
0.1743032 0.11262669 0.49609375
0 0 0
0 0 0
0 0 0
0 0 0
0 0 0
0 0 0
0 0 0
0 0 0
0 0 0
0 0 0
0 0 0
0 0 0
0.20823744 0.11212785 0.49389648
0.21142842 0.11240498 0.49511719
0.21494932 0.11284839 0.49707031
0.21806377 0.1130701 0.49804688
0.22118877 0.11329181 0.49902344
0.22432433 0.11351351 0.5
0.22702703 0.11351351 0.5
0.22972974 0.11351351 0.5
0.23243244 0.11351351 0.5
0.23513514 0.11351351 0.5
0.23737332 0.11329181 0.49902344
0.24007075 0.11329181 0.49902344
0.24276817 0.11329181 0.49902344
0.24546559 0.11329181 0.49902344
0.24864866 0.11351351 0.5
0.25135136 0.11351351 0.5
0.25355786 0.11329181 0.49902344
0.25625527 0.11329181 0.49902344
0.25844595 0.1130701 0.49804688
0.26113808 0.1130701 0.49804688
0.26434755 0.11329181 0.49902344
0.26704499 0.11329181 0.49902344
0.2697424 0.11329181 0.49902344
0.27243984 0.11329181 0.49902344
0.27459881 0.1130701 0.49804688
0.27674726 0.11284839 0.49707031
0.27888513 0.11262669 0.49609375
0.28156671 0.11262669 0.49609375
0.28424832 0.11262669 0.49609375
0.28749472 0.11284839 0.49707031
0.2907517 0.1130701 0.49804688
0.29459462 0.11351351 0.5
0.2972973 0.11351351 0.5
0.29941407 0.11329181 0.49902344
0.30211151 0.11329181 0.49902344
0.30421242 0.1130701 0.49804688
0.30630279 0.11284839 0.49707031
0.30898964 0.11284839 0.49707031
0.31106418 0.11262669 0.49609375
0.31374577 0.11262669 0.49609375
0.31705025 0.11284839 0.49707031
0.32036528 0.1130701 0.49804688
0.32369089 0.11329181 0.49902344
0.3263883 0.11329181 0.49902344
0.32908574 0.11329181 0.49902344
0.33113387 0.1130701 0.49804688
0.33317146 0.11284839 0.49707031
0.33519849 0.11262669 0.49609375
0.33788007 0.11262669 0.49609375
0.33989125 0.11240498 0.49511719
-0.36114866 0.12132338 0.52197266
-0.35832718 0.12132338 0.52197266
-0.35484058 0.12109639 0.52099609
-0.35202441 0.12109639 0.52099609
-0.34920821 0.12109639 0.52099609
-0.34639201 0.12109639 0.52099609
-0.34357581 0.12109639 0.52099609
-0.34075961 0.12109639 0.52099609
-0.3379434 0.12109639 0.52099609
-0.33512723 0.12109639 0.52099609
-0.33231103 0.12109639 0.52099609
-0.32949483 0.12109639 0.52099609
-0.32606632 0.12086941 0.52001953
-0.32325539 0.12086941 0.52001953
-0.3198427 0.12064242 0.51904297
-0.31703705 0.12064242 0.51904297
-0.31482264 0.12086941 0.52001953
-0.31201172 0.12086941 0.52001953
-0.30862015 0.12064242 0.51904297
-0.30523911 0.12041543 0.51806641
-0.30186865 0.12018844 0.51708984
-0.29907358 0.12018844 0.51708984
-0.29627851 0.12018844 0.51708984
-0.29348341 0.12018844 0.51708984
-0.29068834 0.12018844 0.51708984
-0.28843698 0.12041543 0.51806641
-0.2856366 0.12041543 0.51806641
-0.28283626 0.12041543 0.51806641
-0.28003588 0.12041543 0.51806641
-0.27775812 0.12064242 0.51904297
-0.2749525 0.12064242 0.51904297
-0.27214685 0.12064242 0.51904297
-0.26934123 0.12064242 0.51904297
-0.26653558 0.12064242 0.51904297
-0.26323375 0.12041543 0.51806641
-0.26043338 0.12041543 0.51806641
-0.25714737 0.12018844 0.51708984
-0.2543523 0.12018844 0.51708984
-0.25155723 0.12018844 0.51708984
-0.24923195 0.12041543 0.51806641
-0.24596706 0.12018844 0.51708984
-0.24317198 0.12018844 0.51708984
-0.23992293 0.11996146 0.51611328
-0.23713313 0.11996146 0.51611328
-0.23434332 0.11996146 0.51611328
-0.23199165 0.12018844 0.51708984
-0.22919658 0.12018844 0.51708984
-0.22640149 0.12018844 0.51708984
-0.22360641 0.12018844 0.51708984
-0.22081134 0.12018844 0.51708984
-0.21760452 0.11996146 0.51611328
-0.21522118 0.12018844 0.51708984
-0.2124261 0.12018844 0.51708984
-0.21002692 0.12041543 0.51806641
-0.20722656 0.12041543 0.51806641
-0.2044262 0.12041543 0.51806641
-0.20124577 0.12018844 0.51708984
-0.1984507 0.12018844 0.51708984
-0.1952861 0.11996146 0.51611328
-0.1924963 0.11996146 0.51611328
-0.18934755 0.11973447 0.51513672
-0.18691669 0.11996146 0.51611328
-0.18377849 0.11973447 0.51513672
-0.18099397 0.11973447 0.51513672
-0.17820945 0.11973447 0.51513672
-0.17542493 0.11973447 0.51513672
-0.17264041 0.11973447 0.51513672
-0.16953388 0.11950749 0.51416016
-0.16675463 0.11950749 0.51416016
-0.16397539 0.11950749 0.51416016
-0.16119616 0.11950749 0.51416016
-0.1587178 0.11973447 0.51513672
-0.15593328 0.11973447 0.51513672
-0.15314876 0.11973447 0.51513672
-0.15036422 0.11973447 0.51513672
-0.1475797 0.11973447 0.51513672
-0.14479518 0.11973447 0.51513672
-0.14201066 0.11973447 0.51513672
-0.13922614 0.11973447 0.51513672
-0.13644162 0.11973447 0.51513672
-0.1336571 0.11973447 0.51513672
-0.13087256 0.11973447 0.51513672
-0.12808804 0.11973447 0.51513672
-0.12554106 0.11996146 0.51611328
-0 0 0
-0.11996146 0.11996146 0.51611328
-0.11694995 0.11973447 0.51513672
-0.113949 0.11950749 0.51416016
-0.11116976 0.11950749 0.51416016
-0.10818465 0.11928052 0.51318359
-0.10541069 0.11928052 0.51318359
-0.10244141 0.11905353 0.51220703
-0.099482685 0.11882655 0.51123047
-0.09671928 0.11882655 0.51123047
-0.093955874 0.11882655 0.51123047
-0.091366664 0.11905353 0.51220703
-0.088766895 0.11928052 0.51318359
-0.086156562 0.11950749 0.51416016
-0.083377317 0.11950749 0.51416016
-0.080598079 0.11950749 0.51416016
-0.077818833 0.11950749 0.51416016
-0.074897066 0.11928052 0.51318359
-0.071985856 0.11905353 0.51220703
-0.069217168 0.11905353 0.51220703
-0.06632179 0.11882655 0.51123047
-0.063558385 0.11882655 0.51123047
-0.060794976 0.11882655 0.51123047
-0.058031566 0.11882655 0.51123047
-0.055268161 0.11882655 0.51123047
-0.05235431 0.11848607 0.50976562
-0.049598817 0.11848607 0.50976562
-0.046977937 0.11882655 0.51123047
-0.044214528 0.11882655 0.51123047
-0.041451119 0.11882655 0.51123047
-0.038687713 0.11882655 0.51123047
-0.035924304 0.11882655 0.51123047
-0.033065878 0.11848607 0.50976562
-0.030310389 0.11848607 0.50976562
-0.027502112 0.11825908 0.50878906
-0.0247519 0.11825908 0.50878906
-0.022001689 0.11825908 0.50878906
-0.019251479 0.11825908 0.50878906
-0.016501267 0.11825908 0.50878906
-0.013724662 0.1180321 0.5078125
-0.01097973 0.1180321 0.5078125
-0.0082506333 0.11825908 0.50878906
-0.0055004223 0.11825908 0.50878906
-0.0027502112 0.11825908 0.50878906
0 0.11825908 0.50878906
0.0027502112 0.11825908 0.50878906
0.0055004223 0.11825908 0.50878906
0.008234797 0.1180321 0.5078125
0.01097973 0.1180321 0.5078125
0.013698269 0.11780511 0.50683594
0.016406249 0.11757813 0.50585938
0.019140625 0.11757813 0.50585938
0.021875 0.11757813 0.50585938
0.024609374 0.11757813 0.50585938
0.02734375 0.11757813 0.50585938
0.030078124 0.11757813 0.50585938
0.032875843 0.11780511 0.50683594
0.035615496 0.11780511 0.50683594
0.038355153 0.11780511 0.50683594
0.041015625 0.11757813 0.50585938
0.043749999 0.11757813 0.50585938
0.046394635 0.11735114 0.50488281
0.049123731 0.11735114 0.50488281
0.05185283 0.11735114 0.50488281
0.054581925 0.11735114 0.50488281
0.057311021 0.11735114 0.50488281
0.060040116 0.11735114 0.50488281
0.062769212 0.11735114 0.50488281
0.065498307 0.11735114 0.50488281
0.068095438 0.11712416 0.50390625
0.070819251 0.11712416 0.50390625
0.073543072 0.11712416 0.50390625
0.076266892 0.11712416 0.50390625
0.079143792 0.11735114 0.50488281
0.081714526 0.11712416 0.50390625
0.084438339 0.11712416 0.50390625
0.08699324 0.11689717 0.50292969
0.089711778 0.11689717 0.50292969
0.092430316 0.11689717 0.50292969
0.095148854 0.11689717 0.50292969
0.097867392 0.11689717 0.50292969
0.10058593 0.11689717 0.50292969
0.10330448 0.11689717 0.50292969
0.10622888 0.11712416 0.50390625
0.10874155 0.11689717 0.50292969
0.11124367 0.11667019 0.50195312
0.11351351 0.11621622 0.5
0.11598923 0.11598923 0.49902344
0.11891893 0.11621622 0.5
0.12162162 0.11621622 0.5
0.12432433 0.11621622 0.5
0.12702703 0.11621622 0.5
0.12972973 0.11621622 0.5
0.13243243 0.11621622 0.5
0.13513514 0.11621622 0.5
0.13810706 0.1164432 0.50097656
0.14081503 0.1164432 0.50097656
0.14352302 0.1164432 0.50097656
0.146231 0.1164432 0.50097656
0.14922932 0.11667019 0.50195312
0.15164697 0.1164432 0.50097656
0.15435494 0.1164432 0.50097656
0.15675676 0.11621622 0.5
0.15945946 0.11621622 0.5
0.16247889 0.1164432 0.50097656
0.16518687 0.1164432 0.50097656
0.16756757 0.11621622 0.5
0.16993771 0.11598923 0.49902344
0.1722973 0.11576225 0.49804688
0.1743032 0.11530828 0.49609375
0.1766364 0.11508129 0.49511719
0.17851694 0.11457057 0.49291992
0.18046348 0.11411661 0.4909668
0.18238889 0.11366264 0.48901367
0 0 0
0 0 0
0 0 0
0 0 0
0 0 0
0 0 0
0 0 0
0 0 0
0.20823744 0.11479756 0.49389648
0.21090715 0.11479756 0.49389648
0.21410473 0.11508129 0.49511719
0.21720861 0.11530828 0.49609375
0.21989021 0.11530828 0.49609375
0.22257179 0.11530828 0.49609375
0.22525337 0.11530828 0.49609375
0.22793497 0.11530828 0.49609375
0.23061655 0.11530828 0.49609375
0.23329814 0.11530828 0.49609375
0.23597974 0.11530828 0.49609375
0.23819152 0.11508129 0.49511719
0.24086782 0.11508129 0.49511719
0.24354413 0.11508129 0.49511719
0.24670608 0.11530828 0.49609375
0.24987859 0.11553526 0.49707031
0.25256544 0.11553526 0.49707031
0.25525233 0.11553526 0.49707031
0.25793919 0.11553526 0.49707031
0.26062605 0.11553526 0.49707031
0.26331294 0.11553526 0.49707031
0.26599979 0.11553526 0.49707031
0.26868665 0.11553526 0.49707031
0.27084038 0.11530828 0.49609375
0.27298352 0.11508129 0.49511719
0.27565983 0.11508129 0.49511719
0.27764991 0.11479756 0.49389648
0.28031963 0.11479756 0.49389648
0.28298932 0.11479756 0.49389648
0.28636506 0.11508129 0.49511719
0.28961149 0.11530828 0.49609375
0.29286847 0.11553526 0.49707031
0.29439399 0.11508129 0.49511719
0.29633787 0.11479756 0.49389648
0.29900759 0.11479756 0.49389648
0.30242294 0.11508129 0.49511719
0.30509925 0.11508129 0.49511719
0.30701673 0.11479756 0.49389648
0.30968642 0.11479756 0.49389648
0.31235614 0.11479756 0.49389648
0.31502587 0.11479756 0.49389648
0.31769556 0.11479756 0.49389648
0.32036528 0.11479756 0.49389648
0.323035 0.11479756 0.49389648
0.32570469 0.11479756 0.49389648
0.32837442 0.11479756 0.49389648
0.33186233 0.11508129 0.49511719
0.33453864 0.11508129 0.49511719
0.33638355 0.11479756 0.49389648
0.33838284 0.11457057 0.49291992
-0.35844594 0.12321579 0.51806641
-0.3556456 0.12321579 0.51806641
-0.35284522 0.12321579 0.51806641
-0.35004488 0.12321579 0.51806641
-0.34789908 0.12344806 0.51904297
-0.3457427 0.12368032 0.52001953
-0.34293181 0.12368032 0.52001953
-0.34012088 0.12368032 0.52001953
-0.33730996 0.12368032 0.52001953
-0.33449906 0.12368032 0.52001953
-0.33106524 0.12344806 0.51904297
-0.32764199 0.12321579 0.51806641
-0.32484165 0.12321579 0.51806641
-0.32204127 0.12321579 0.51806641
-0.31924093 0.12321579 0.51806641
-0.31644055 0.12321579 0.51806641
-0.31304899 0.12298353 0.51708984
-0.30966797 0.12275127 0.51611328
-0.30629751 0.122519 0.51513672
-0.3029376 0.12228674 0.51416016
-0.30015835 0.12228674 0.51416016
-0.29737911 0.12228674 0.51416016
-0.29459986 0.12228674 0.51416016
-0.29182062 0.12228674 0.51416016
-0.28959036 0.122519 0.51513672
-0.28734955 0.12275127 0.51611328
-0.28455976 0.12275127 0.51611328
-0.28230309 0.12298353 0.51708984
-0.27950802 0.12298353 0.51708984
-0.27723554 0.12321579 0.51806641
-0.27443516 0.12321579 0.51806641
-0.27112278 0.12298353 0.51708984
-0.26832771 0.12298353 0.51708984
-0.26503113 0.12275127 0.51611328
-0.26174513 0.122519 0.51513672
-0.2589606 0.122519 0.51513672
-0.25569046 0.12228674 0.51416016
-0.25291121 0.12228674 0.51416016
-0.25013196 0.12228674 0.51416016
-0.24735272 0.12228674 0.51416016
-0.24457347 0.12228674 0.51416016
-0.24179423 0.12228674 0.51416016
-0.23856103 0.12205448 0.51318359
-0.23578706 0.12205448 0.51318359
-0.23345649 0.12228674 0.51416016
-0.23067725 0.12228674 0.51416016
-0.22833087 0.122519 0.51513672
-0.22554635 0.122519 0.51513672
-0.22276181 0.122519 0.51513672
-0.21997729 0.122519 0.51513672
-0.21719277 0.122519 0.51513672
-0.21440825 0.122519 0.51513672
-0.21162373 0.122519 0.51513672
-0.20883921 0.122519 0.51513672
-0.20605469 0.122519 0.51513672
-0.20327015 0.122519 0.51513672
-0.20048563 0.122519 0.51513672
-0.19732632 0.12228674 0.51416016
-0.19454707 0.12228674 0.51416016
-0.19140361 0.12205448 0.51318359
-0.18862966 0.12205448 0.51318359
-0.18585569 0.12205448 0.51318359
-0.18308172 0.12205448 0.51318359
-0.17996463 0.12182222 0.51220703
-0.17719595 0.12182222 0.51220703
-0.17442727 0.12182222 0.51220703
-0.17165858 0.12182222 0.51220703
-0.16856788 0.12158995 0.51123047
-0.16580448 0.12158995 0.51123047
-0.16304107 0.12158995 0.51123047
-0.16027766 0.12158995 0.51123047
-0.15751426 0.12158995 0.51123047
-0.15430744 0.12124155 0.50976562
-0.15155195 0.12124155 0.50976562
-0.14922403 0.12158995 0.51123047
-0.14646062 0.12158995 0.51123047
-0.14424621 0.12205448 0.51318359
-0.14147224 0.12205448 0.51318359
-0.13869828 0.12205448 0.51318359
-0.13592431 0.12205448 0.51318359
-0.13289696 0.12182222 0.51220703
-0.13012828 0.12182222 0.51220703
-0.12735958 0.12182222 0.51220703
-0.1245909 0.12182222 0.51220703
-0.12182222 0.12182222 0.51220703
-0.11905353 0.12182222 0.51220703
-0.11628484 0.12182222 0.51220703
-0.11329973 0.12158995 0.51123047
-0.11053632 0.12158995 0.51123047
-0.10777291 0.12158995 0.51123047
-0.1050095 0.12158995 0.51123047
-0.10195313 0.12124155 0.50976562
-0.099007599 0.12100929 0.50878906
-0.096072637 0.12077703 0.5078125
-0.093327701 0.12077703 0.5078125
-0.090408571 0.12054476 0.50683594
-0.087837838 0.12077703 0.5078125
-0.085256547 0.12100929 0.50878906
-0.082664698 0.12124155 0.50976562
-0.080138832 0.12158995 0.51123047
-0.077523232 0.12182222 0.51220703
-0.074612014 0.12158995 0.51123047
-0.071642734 0.12124155 0.50976562
-0.068755277 0.12100929 0.50878906
-0.066005066 0.12100929 0.50878906
-0.063254856 0.12100929 0.50878906
-0.060388513 0.12077703 0.5078125
-0.057643581 0.12077703 0.5078125
-0.054898649 0.12077703 0.5078125
-0.052153718 0.12077703 0.5078125
-0.049408782 0.12077703 0.5078125
-0.046663851 0.12077703 0.5078125
-0.043918919 0.12077703 0.5078125
-0.041173987 0.12077703 0.5078125
-0.038429055 0.12077703 0.5078125
-0.03568412 0.12077703 0.5078125
-0.032939188 0.12077703 0.5078125
-0.03013619 0.12054476 0.50683594
-0.027396537 0.12054476 0.50683594
-0.024656883 0.12054476 0.50683594
-0.02191723 0.12054476 0.50683594
-0.019177577 0.12054476 0.50683594
-0.016406249 0.1203125 0.50585938
-0.013671875 0.1203125 0.50585938
-0.010916385 0.12008023 0.50488281
-0.0081872884 0.12008023 0.50488281
-0.0054581924 0.12008023 0.50488281
-0.0027290962 0.12008023 0.50488281
0 0.12008023 0.50488281
0.0027290962 0.12008023 0.50488281
0.0054581924 0.12008023 0.50488281
0.0081872884 0.12008023 0.50488281
0.01089527 0.11984797 0.50390625
0.013619088 0.11984797 0.50390625
0.016311232 0.1196157 0.50292969
0.019029772 0.1196157 0.50292969
0.02179054 0.11984797 0.50390625
0.024514357 0.11984797 0.50390625
0.027238175 0.11984797 0.50390625
0.029961992 0.11984797 0.50390625
0.032812499 0.1203125 0.50585938
0.035546873 0.1203125 0.50585938
0.038207348 0.12008023 0.50488281
0.040857263 0.11984797 0.50390625
0.04349662 0.1196157 0.50292969
0.046215158 0.1196157 0.50292969
0.049028713 0.11984797 0.50390625
0.051752534 0.11984797 0.50390625
0.054476351 0.11984797 0.50390625
0.057200167 0.11984797 0.50390625
0.059923984 0.11984797 0.50390625
0.062647805 0.11984797 0.50390625
0.065244928 0.1196157 0.50292969
0.067831509 0.11938345 0.50195312
0.070544764 0.11938345 0.50195312
0.073258027 0.11938345 0.50195312
0.07597129 0.11938345 0.50195312
0.078684546 0.11938345 0.50195312
0.081397809 0.11938345 0.50195312
0.084111065 0.11938345 0.50195312
0.086655408 0.11915119 0.50097656
0.089189194 0.11891893 0.5
0.091712415 0.11868666 0.49902344
0.094409838 0.11868666 0.49902344
0.097107261 0.11868666 0.49902344
0.099804692 0.11868666 0.49902344
0.10270271 0.11891893 0.5
0.10540541 0.11891893 0.5
0.10789696 0.11868666 0.49902344
0.11037796 0.1184544 0.49804688
0.11284839 0.11822213 0.49707031
0.11553526 0.11822213 0.49707031
0.1184544 0.1184544 0.49804688
0.12114654 0.1184544 0.49804688
0.12383869 0.1184544 0.49804688
0.12653083 0.1184544 0.49804688
0.12896959 0.11822213 0.49707031
0.13165647 0.11822213 0.49707031
0.13434333 0.11822213 0.49707031
0.1370302 0.11822213 0.49707031
0.13971706 0.11822213 0.49707031
0.1426837 0.1184544 0.49804688
0.14537585 0.1184544 0.49804688
0.14835832 0.11868666 0.49902344
0.15105575 0.11868666 0.49902344
0.15345228 0.1184544 0.49804688
0.15614443 0.1184544 0.49804688
0.15883657 0.1184544 0.49804688
0.16152872 0.1184544 0.49804688
0.16422087 0.1184544 0.49804688
0.166913 0.1184544 0.49804688
0.16960515 0.1184544 0.49804688
0.17195946 0.11822213 0.49707031
0.1743032 0.11798987 0.49609375
0.1769848 0.11798987 0.49609375
0.17887062 0.11746727 0.49389648
0.18082242 0.11700274 0.49194336
0.18275312 0.11653822 0.48999023
0 0 0
0 0 0
0 0 0
0 0 0
0 0 0
0 0 0
0 0 0
0 0 0
0.20782569 0.117235 0.49291992
0.21049012 0.117235 0.49291992
0.21315455 0.117235 0.49291992
0.21624656 0.11746727 0.49389648
0.21891627 0.11746727 0.49389648
0.22158599 0.11746727 0.49389648
0.2242557 0.11746727 0.49389648
0.2269254 0.11746727 0.49389648
0.22914115 0.117235 0.49291992
0.23180558 0.117235 0.49291992
0.23400548 0.11700274 0.49194336
0.23666464 0.11700274 0.49194336
0.23932379 0.11700274 0.49194336
0.2415026 0.11677048 0.4909668
0.24415646 0.11677048 0.4909668
0.24681035 0.11677048 0.4909668
0.24996039 0.11700274 0.49194336
0.25312102 0.117235 0.49291992
0.25629222 0.11746727 0.49389648
0.25896195 0.11746727 0.49389648
0.26163164 0.11746727 0.49389648
0.26430136 0.11746727 0.49389648
0.26644319 0.117235 0.49291992
0.26910764 0.117235 0.49291992
0.27177206 0.117235 0.49291992
0.27443647 0.117235 0.49291992
0.27710092 0.117235 0.49291992
0.27976537 0.117235 0.49291992
0.28242978 0.117235 0.49291992
0.2850942 0.117235 0.49291992
0.28718853 0.11700274 0.49194336
0.2898477 0.11700274 0.49194336
0.29250684 0.11700274 0.49194336
0.2945801 0.11677048 0.4909668
0.29782516 0.11700274 0.49194336
0.30108082 0.117235 0.49291992
0.30374524 0.117235 0.49291992
0.30640966 0.117235 0.49291992
0.30846179 0.11700274 0.49194336
0.31112093 0.11700274 0.49194336
0.31378007 0.11700274 0.49194336
0.31643924 0.11700274 0.49194336
0.31909838 0.11700274 0.49194336
0.32175753 0.11700274 0.49194336
0.3244167 0.11700274 0.49194336
0.32707584 0.11700274 0.49194336
0.32973498 0.11700274 0.49194336
0.33239415 0.11700274 0.49194336
0.33505329 0.11700274 0.49194336
0.33704209 0.11677048 0.4909668
-0.35709459 0.12554106 0.51611328
-0.35430479 0.12554106 0.51611328
-0.351515 0.12554106 0.51611328
-0.34938502 0.12577862 0.51708984
-0.34658995 0.12577862 0.51708984
-0.34444416 0.12601615 0.51806641
-0.34164378 0.12601615 0.51806641
-0.33884344 0.12601615 0.51806641
-0.33604306 0.12601615 0.51806641
-0.33261454 0.12577862 0.51708984
-0.32981947 0.12577862 0.51708984
-0.32640678 0.12554106 0.51611328
-0.32361698 0.12554106 0.51611328
-0.32082716 0.12554106 0.51611328
-0.31803736 0.12554106 0.51611328
-0.31524757 0.12554106 0.51611328
-0.31186655 0.12530352 0.51513672
-0.30849609 0.12506598 0.51416016
-0.3051362 0.12482844 0.51318359
-0.30178684 0.1245909 0.51220703
-0.29844806 0.12435336 0.51123047
-0.29568467 0.12435336 0.51123047
-0.29292125 0.12435336 0.51123047
-0.29071212 0.1245909 0.51220703
-0.28849241 0.12482844 0.51318359
-0.28571844 0.12482844 0.51318359
-0.28294447 0.12482844 0.51318359
-0.2812368 0.12530352 0.51513672
-0.27845228 0.12530352 0.51513672
-0.27619034 0.12554106 0.51611328
-0.27340055 0.12554106 0.51611328
-0.27061075 0.12554106 0.51611328
-0.2673142 0.12530352 0.51513672
-0.26402819 0.12506598 0.51416016
-0.26124895 0.12506598 0.51416016
-0.2579788 0.12482844 0.51318359
-0.25520483 0.12482844 0.51318359
-0.25243086 0.12482844 0.51318359
-0.24965689 0.12482844 0.51318359
-0.24688293 0.12482844 0.51318359
-0.24410896 0.12482844 0.51318359
-0.24087575 0.1245909 0.51220703
-0.23765309 0.12435336 0.51123047
-0.23488969 0.12435336 0.51123047
-0.23212627 0.12435336 0.51123047
-0.22936286 0.12435336 0.51123047
-0.22659945 0.12435336 0.51123047
-0.22383605 0.12435336 0.51123047
-0.22149494 0.1245909 0.51220703
-0.21872625 0.1245909 0.51220703
-0.21554582 0.12435336 0.51123047
-0.21278241 0.12435336 0.51123047
-0.21001901 0.12435336 0.51123047
-0.2072556 0.12435336 0.51123047
-0.2044922 0.12435336 0.51123047
-0.20172879 0.12435336 0.51123047
-0.19896537 0.12435336 0.51123047
-0.19620197 0.12435336 0.51123047
-0.1928843 0.12399705 0.50976562
-0.19067515 0.12435336 0.51123047
-0.18791175 0.12435336 0.51123047
-0.18514834 0.12435336 0.51123047
-0.18238492 0.12435336 0.51123047
-0.17910685 0.12399705 0.50976562
-0.17635135 0.12399705 0.50976562
-0.17359586 0.12399705 0.50976562
-0.17051309 0.1237595 0.50878906
-0.16776288 0.1237595 0.50878906
-0.16501267 0.1237595 0.50878906
-0.16226245 0.1237595 0.50878906
-0.15920608 0.12352196 0.5078125
-0.15646115 0.12352196 0.5078125
-0.15342061 0.12328441 0.50683594
-0.15068096 0.12328441 0.50683594
-0.14794131 0.12328441 0.50683594
-0.14548142 0.12352196 0.5078125
-0.14273648 0.12352196 0.5078125
-0.14026077 0.1237595 0.50878906
-0.1377745 0.12399705 0.50976562
-0.135019 0.12399705 0.50976562
-0.13201013 0.1237595 0.50878906
-0.12925993 0.1237595 0.50878906
-0.12650971 0.1237595 0.50878906
-0.1237595 0.1237595 0.50878906
-0.12100929 0.1237595 0.50878906
-0.1180321 0.12352196 0.5078125
-0.11528716 0.12352196 0.5078125
-0.11254223 0.12352196 0.5078125
-0.1097973 0.12352196 0.5078125
-0.10705236 0.12352196 0.5078125
-0.10430744 0.12352196 0.5078125
-0.10136718 0.12328441 0.50683594
-0.09862753 0.12328441 0.50683594
-0.095703125 0.12304688 0.50585938
-0.092968747 0.12304688 0.50585938
-0.090060174 0.12280933 0.50488281
-0.087331079 0.12280933 0.50488281
-0.084765621 0.12304688 0.50585938
-0.08203125 0.12304688 0.50585938
-0.079449959 0.12328441 0.50683594
-0.076710306 0.12328441 0.50683594
-0.073970653 0.12328441 0.50683594
-0.071093746 0.12304688 0.50585938
-0.068359375 0.12304688 0.50585938
-0.065624997 0.12304688 0.50585938
-0.062890626 0.12304688 0.50585938
-0.060156249 0.12304688 0.50585938
-0.057421874 0.12304688 0.50585938
-0.054581925 0.12280933 0.50488281
-0.05185283 0.12280933 0.50488281
-0.049028713 0.12257179 0.50390625
-0.046304896 0.12257179 0.50390625
-0.04358108 0.12257179 0.50390625
-0.040857263 0.12257179 0.50390625
-0.038133446 0.12257179 0.50390625
-0.035409626 0.12257179 0.50390625
-0.032685809 0.12257179 0.50390625
-0.029961992 0.12257179 0.50390625
-0.027238175 0.12257179 0.50390625
-0.024514357 0.12257179 0.50390625
-0.02174831 0.12233424 0.50292969
-0.019029772 0.12233424 0.50292969
-0.016342904 0.12257179 0.50390625
-0.013592694 0.12233424 0.50292969
-0.010874155 0.12233424 0.50292969
-0.008155616 0.12233424 0.50292969
-0.0054370775 0.12233424 0.50292969
-0.0027132602 0.12209671 0.50195312
0 0.12209671 0.50195312
0.0027132602 0.12209671 0.50195312
0.0054265205 0.12209671 0.50195312
0.0081397807 0.12209671 0.50195312
0.010853041 0.12209671 0.50195312
0.013539908 0.12185917 0.50097656
0.016247889 0.12185917 0.50097656
0.018955871 0.12185917 0.50097656
0.021663852 0.12185917 0.50097656
0.024371833 0.12185917 0.50097656
0.027132602 0.12209671 0.50195312
0.029845864 0.12209671 0.50195312
0.032622464 0.12233424 0.50292969
0.035409626 0.12257179 0.50390625
0.038059544 0.12233424 0.50292969
0.040619723 0.12185917 0.50097656
0.043243244 0.12162162 0.5
0.045945946 0.12162162 0.5
0.048743665 0.12185917 0.50097656
0.05145165 0.12185917 0.50097656
0.054054055 0.12162162 0.5
0.056756757 0.12162162 0.5
0.059459463 0.12162162 0.5
0.062162165 0.12162162 0.5
0.064738177 0.12138408 0.49902344
0.0674356 0.12138408 0.49902344
0.070133023 0.12138408 0.49902344
0.072830446 0.12138408 0.49902344
0.075675681 0.12162162 0.5
0.078378379 0.12162162 0.5
0.081081085 0.12162162 0.5
0.083620146 0.12138408 0.49902344
0.086317569 0.12138408 0.49902344
0.088840798 0.12114654 0.49804688
0.091353461 0.120909 0.49707031
0.094040327 0.120909 0.49707031
0.096727192 0.120909 0.49707031
0.099414065 0.120909 0.49707031
0.10210093 0.120909 0.49707031
0.1047878 0.120909 0.49707031
0.10726351 0.12067145 0.49609375
0.10972867 0.12043391 0.49511719
0.11240498 0.12043391 0.49511719
0.11508129 0.12043391 0.49511719
0.11798987 0.12067145 0.49609375
0.12067145 0.12067145 0.49609375
0.12335304 0.12067145 0.49609375
0.12578653 0.12043391 0.49511719
0.12846284 0.12043391 0.49511719
0.13113914 0.12043391 0.49511719
0.13381545 0.12043391 0.49511719
0.13649176 0.12043391 0.49511719
0.13882495 0.12013698 0.49389648
0.14121489 0.11989944 0.49291992
0.14387932 0.11989944 0.49291992
0.14683409 0.12013698 0.49389648
0.1495038 0.12013698 0.49389648
0.1521735 0.12013698 0.49389648
0.15522593 0.12043391 0.49511719
0.15790224 0.12043391 0.49511719
0.16057855 0.12043391 0.49511719
0.16357686 0.12067145 0.49609375
0.16625844 0.12067145 0.49609375
0.16894004 0.12067145 0.49609375
0.17162162 0.12067145 0.49609375
0.1743032 0.12067145 0.49609375
0.1766364 0.12043391 0.49511719
0.17887062 0.12013698 0.49389648
0.18082242 0.1196619 0.49194336
0 0 0
0 0 0
0 0 0
0 0 0
0 0 0
0 0 0
0 0 0
0 0 0
0 0 0
0.20659049 0.11918682 0.48999023
0.2096561 0.11942436 0.4909668
0.21230997 0.11942436 0.4909668
0.21453628 0.11918682 0.48999023
0.21761772 0.11942436 0.4909668
0.22070971 0.1196619 0.49194336
0.22336887 0.1196619 0.49194336
0.22557935 0.11942436 0.4909668
0.22823322 0.11942436 0.4909668
0.23042785 0.11918682 0.48999023
0.23307644 0.11918682 0.48999023
0.23572505 0.11918682 0.48999023
