# .PCD v0.7 - Point Cloud Data file format
VERSION 0.7
FIELDS x y z
SIZE 4 4 4
TYPE F F F
COUNT 1 1 1
WIDTH 1412
HEIGHT 1
VIEWPOINT 0 0 0 1 0 0 0
POINTS 1412
DATA ascii
-0.31773514 0.051724326 0.68349999
-0.31381083 0.051686488 0.68300003
-0.30966485 0.051610809 0.68199998
-0.30586621 0.051591892 0.68175
-0.30173784 0.051516216 0.68075001
-0.2972919 0.051383786 0.67900002
-0.29318917 0.051308107 0.67799997
-0.29037839 0.051459461 0.68000001
-0.28786215 0.051667567 0.68274999
-0.28490001 0.051800001 0.68449998
-0.28161082 0.051875681 0.68550003
-0.27760136 0.051818918 0.68475002
-0.2735 0.051743239 0.68374997
-0.26911351 0.051610809 0.68199998
-0.26464865 0.051459461 0.68000001
-0.26020539 0.051308107 0.67799997
-0.25682431 0.051364861 0.67874998
-0.25278243 0.05128919 0.67774999
-0.24911892 0.05128919 0.67774999
-0.24554594 0.051308107 0.67799997
-0.24197027 0.051327027 0.67825001
-0.23839189 0.051345948 0.6785
-0.23463784 0.051327027 0.67825001
-0.23088647 0.051308107 0.67799997
-0.22680271 0.051213514 0.67675
-0.22306217 0.051194597 0.67650002
-0.21948649 0.051213514 0.67675
-0.2164662 0.051364861 0.67874998
-0.21311082 0.051440541 0.67975003
-0.20943649 0.051440541 0.67975003
-0.20568648 0.05142162 0.67949998
-0.2019392 0.051402703 0.67925
-0.19819459 0.051383786 0.67900002
-0.19430946 0.051327027 0.67825001
-0.19001082 0.051156759 0.676
-0.17470945 0.047959458 0.63375002
-0.16006756 0.044818919 0.59224999
-0.15660135 0.044743244 0.59125
-0.15327567 0.044705406 0.59074998
-0.14995541 0.044667572 0.59025002
-0.14670271 0.044648647 0.58999997
-0.1434527 0.04462973 0.58974999
-0.1402054 0.04461081 0.58950001
-0.13696082 0.044591896 0.58925003
-0.13371892 0.044572972 0.58899999
-0.13053513 0.044572972 0.58899999
-0.12735134 0.044572972 0.58899999
-0.12416757 0.044572972 0.58899999
-0.12103514 0.044591896 0.58925003
-0.11785001 0.044591896 0.58925003
-0.11471351 0.04461081 0.58950001
-0.11162162 0.044648647 0.58999997
-0.10847838 0.044667572 0.59025002
-0.10533243 0.044686485 0.5905
-0.10222703 0.044724327 0.59100002
-0.099116214 0.044762161 0.59149998
-0.096000001 0.044800002 0.59200001
-0.092878379 0.044837836 0.59249997
-0.089751348 0.044875674 0.59299999
-0.086618923 0.044913515 0.59350002
-0.083516218 0.044970274 0.59425002
-0.080371618 0.045008108 0.59474999
-0.077221625 0.04504595 0.59525001
-0.074097298 0.045102704 0.59600002
-0.07093513 0.045140538 0.59649998
-0.06779594 0.045197297 0.59724998
-0.064621627 0.045235135 0.59775001
-0.061467569 0.045291893 0.59850001
-0.058281079 0.045329727 0.59899998
-0.055112161 0.045386486 0.59974998
-0.051913515 0.045424327 0.60025001
-0.04870946 0.045462161 0.60075003
-0.045518916 0.045518916 0.60149997
-0.042302705 0.045556758 0.602
-0.039097298 0.045613512 0.60275
-0.035883784 0.045670271 0.60350001
-0.032662161 0.045727029 0.60425001
-0.029432433 0.045783784 0.60500002
-0.026194595 0.045840539 0.60575002
-0.022948651 0.045897301 0.60650003
-0.019694593 0.045954052 0.60724998
-0.016425677 0.04599189 0.60775
-0.013145946 0.046010811 0.60799998
-0.0098756766 0.04608649 0.60900003
-0.0066459463 0.046521623 0.61475003
-0.0033283785 0.046597298 0.61575001
0 0.046616215 0.616
0.0033297297 0.046616215 0.616
0.0066594593 0.046616215 0.616
0.0099851359 0.046597298 0.61575001
0.013313514 0.046597298 0.61575001
0.016641892 0.046597298 0.61575001
0.019970272 0.046597298 0.61575001
0.023308108 0.046616215 0.616
0.026648648 0.046635136 0.61624998
0.029991893 0.046654057 0.61650002
0.033337839 0.04667297 0.61675
0.036701351 0.046710812 0.61725003
0.040070269 0.046748646 0.61774999
0.043444596 0.046786487 0.61825001
0.046824321 0.046824321 0.61874998
0.050209459 0.046862163 0.61925
0.053621624 0.046918921 0.62
0.057041895 0.046975676 0.62075001
0.060494594 0.047051348 0.62175
0.063983783 0.047145948 0.62300003
0.067513511 0.047259457 0.62449998
0.071031086 0.047354054 0.62575001
0.07488919 0.047656756 0.62975001
0.080655411 0.049094595 0.64875001
0.084551349 0.049321622 0.65175003
0.088344596 0.049472973 0.65375
0.092124328 0.049605407 0.65549999
0.095886484 0.04971892 0.65700001
0.099854052 0.049927026 0.65974998
0.10342027 0.049927026 0.65974998
0.10698649 0.049927026 0.65974998
0.11042703 0.049870271 0.65899998
0.11381622 0.049794596 0.65799999
0.11737297 0.049794596 0.65799999
0.12092973 0.049794596 0.65799999
0.12462838 0.04985135 0.65875
0.12823784 0.049870271 0.65899998
0.13175 0.04985135 0.65875
0.13515675 0.049794596 0.65799999
0.13845 0.049699999 0.65675002
0.14178377 0.04962432 0.65574998
0.14510676 0.049548648 0.65474999
0.14841892 0.049472973 0.65375
0.1519527 0.049472973 0.65375
0.15548649 0.049472973 0.65375
0.15902027 0.049472973 0.65375
0.16230541 0.049397297 0.65275002
0.16577026 0.049378376 0.65249997
0.1691027 0.049321622 0.65175003
0.17282432 0.049378376 0.65249997
0.17662163 0.049454056 0.65350002
0.18015406 0.049454056 0.65350002
0.18354595 0.049416218 0.653
0.18707567 0.049416218 0.653
0.1906054 0.049416218 0.653
0.19413514 0.049416218 0.653
0.19751351 0.049378376 0.65249997
0.20080946 0.049321622 0.65175003
0.20417568 0.049283784 0.65125
0.20753647 0.049245942 0.65074998
0.2108919 0.049208108 0.65025002
0.21424188 0.049170267 0.64974999
0.21741892 0.049094595 0.64875001
0.22126621 0.049170267 0.64974999
0.22538377 0.049302701 0.65149999
0.22925675 0.049378376 0.65249997
0.23278378 0.049378376 0.65249997
0.23594864 0.049302701 0.65149999
0.23919459 0.049245942 0.65074998
0.24233918 0.049170267 0.64974999
0.24585134 0.049170267 0.64974999
0.24926758 0.049151354 0.64950001
0.25277838 0.049151354 0.64950001
0.2558946 0.049075678 0.64850003
0.25920001 0.04903784 0.648
0.2627027 0.04903784 0.648
0.2663081 0.049056754 0.64824998
0.26981217 0.049056754 0.64824998
0.27342162 0.049075678 0.64850003
0.27692702 0.049075678 0.64850003
0.28043243 0.049075678 0.64850003
0.28360948 0.049018919 0.64775002
0.28744325 0.049075678 0.64850003
0.29061216 0.049018919 0.64775002
0.294 0.048999999 0.64749998
0.29749998 0.048999999 0.64749998
0.30053511 0.048924323 0.64649999
0.30367702 0.048867565 0.64574999
0.30716756 0.048867565 0.64574999
0.31077838 0.048886489 0.64600003
0.3145135 0.048924323 0.64649999
0.3180081 0.048924323 0.64649999
0.32150269 0.048924323 0.64649999
0.32499728 0.048924323 0.64649999
0.32849187 0.048924323 0.64649999
0.33301353 0.049075678 0.64850003
0.33703786 0.049151354 0.64950001
0.34041756 0.049132429 0.64924997
0.34167567 0.04881081 0.64499998
0.34449327 0.048716217 0.64375001
0.34756759 0.048659462 0.64300001
0.35145271 0.048716217 0.64375001
0.35589731 0.048848651 0.6455
0.35994324 0.048924323 0.64649999
0.3628757 0.048848651 0.6455
0.36565539 0.048754051 0.64424998
0.3687081 0.048697297 0.64349997
0.37189731 0.048659462 0.64300001
0.37522703 0.048640542 0.64275002
0.37855405 0.048621621 0.64249998
0.38172975 0.048583787 0.64200002
0.3849 0.048545945 0.6415
0.38821623 0.048527028 0.64125001
0.39152971 0.048508108 0.64099997
0.39484054 0.048489187 0.64074999
0.39799327 0.048451353 0.64025003
0.4012973 0.048432432 0.63999999
0.40428242 0.048375674 0.63924998
0.40741894 0.04833784 0.63875002
0.41038918 0.048281081 0.63800001
0.41335136 0.048224322 0.63725001
0.41663244 0.048205409 0.63700002
0.42024055 0.048224322 0.63725001
0.42385134 0.048243243 0.63749999
0.4269622 0.048205409 0.63700002
0.43023649 0.048186485 0.63674998
0.4335081 0.048167568 0.6365
0.43677706 0.048148651 0.63625002
-0.47567567 0.055743244 0.6875
-0.4731608 0.055885136 0.68924999
-0.47045675 0.056006756 0.69075
-0.46655408 0.05598649 0.69050002
-0.46131352 0.055804055 0.68825001
-0.45642972 0.055662163 0.68650001
-0.45156488 0.05552027 0.68475002
-0.44688243 0.05539865 0.68325001
-0.44270271 0.055337839 0.6825
-0.43869185 0.055297293 0.68199998
-0.43436757 0.055216216 0.68099999
-0.43005407 0.055135135 0.68000001
-0.42653513 0.055155408 0.68024999
-0.42332432 0.055216216 0.68099999
-0.41995135 0.055256758 0.68150002
-0.41611484 0.055236485 0.68124998
-0.4125838 0.055256758 0.68150002
-0.40935001 0.05531757 0.68225002
-0.40700001 0.055500001 0.68449998
-0.40241623 0.055378381 0.68300003
-0.39799461 0.055277027 0.68175
-0.39329731 0.055135135 0.68000001
-0.38904867 0.055054054 0.67900002
-0.38481081 0.054972969 0.67799997
-0.38044325 0.054871622 0.67675
-0.37622839 0.054790542 0.67575002
-0.3720243 0.054709457 0.67474997
-0.368377 0.054709457 0.67474997
-0.36513513 0.054770268 0.67549998
-0.36161757 0.054790542 0.67575002
-0.35836217 0.054851353 0.67650002
-0.35536081 0.054952703 0.67774999
-0.35273513 0.055114865 0.67975003
-0.35008785 0.055277027 0.68175
-0.3464027 0.055277027 0.68175
-0.34271756 0.055277027 0.68175
-0.33803785 0.055114865 0.67975003
-0.3338716 0.055033781 0.67874998
-0.3302027 0.055033781 0.67874998
-0.32701486 0.055114865 0.67975003
-0.32334054 0.055114865 0.67975003
-0.31966621 0.055114865 0.67975003
-0.31599191 0.055114865 0.67975003
-0.31231758 0.055114865 0.67975003
-0.30864325 0.055114865 0.67975003
-0.30452025 0.055033781 0.67874998
-0.29996487 0.054871622 0.67675
-0.29586893 0.054790542 0.67575002
-0.29210809 0.054770268 0.67549998
-0.28856352 0.054790542 0.67575002
-0.28533244 0.054871622 0.67675
-0.28167433 0.054871622 0.67675
-0.2785297 0.054972969 0.67799997
-0.27597973 0.055195946 0.68075001
-0.2723 0.055195946 0.68075001
-0.26822567 0.055114865 0.67975003
-0.26416215 0.055033781 0.67874998
-0.25953376 0.05483108 0.67624998
-0.25559458 0.054770268 0.67549998
-0.25166351 0.054709457 0.67474997
-0.24792431 0.054689188 0.67449999
-0.24427837 0.054689188 0.67449999
-0.24054325 0.054668922 0.67425001
-0.23689866 0.054668922 0.67425001
-0.23325406 0.054668922 0.67425001
-0.22952433 0.054648649 0.67400002
-0.22571352 0.05460811 0.6735
-0.22215539 0.054628376 0.67374998
-0.21883783 0.054709457 0.67474997
-0.21574865 0.054851353 0.67650002
-0.21248379 0.054952703 0.67774999
-0.20843513 0.054851353 0.67650002
-0.20462704 0.054810811 0.676
-0.20097297 0.054810811 0.676
-0.1971 0.054749999 0.67524999
-0.19287704 0.054587841 0.67325002
-0.17792432 0.051324323 0.63300002
-0.16257973 0.047817566 0.58974999
-0.15905407 0.047716219 0.58850002
-0.15567434 0.047655407 0.58775002
-0.1523027 0.047594596 0.58700001
-0.14906621 0.047574319 0.58674997
-0.14577027 0.047533784 0.58625001
-0.14254054 0.047513515 0.58600003
-0.13931352 0.047493242 0.58574998
-0.13614729 0.047493242 0.58574998
-0.13292432 0.047472972 0.5855
-0.12975946 0.047472972 0.5855
-0.12659459 0.047472972 0.5855
-0.12348243 0.047493242 0.58574998
-0.12031621 0.047493242 0.58574998
-0.11720001 0.047513515 0.58600003
-0.11408108 0.047533784 0.58625001
-0.11095946 0.047554053 0.58649999
-0.10788108 0.047594596 0.58700001
-0.1047527 0.047614865 0.58724999
-0.10166487 0.047655407 0.58775002
-0.098571621 0.047695946 0.58824998
-0.095472969 0.047736485 0.58875
-0.092368923 0.047777031 0.58925003
-0.089259461 0.047817566 0.58974999
-0.086181082 0.047878377 0.5905
-0.08305946 0.047918923 0.59100002
-0.079932429 0.047959458 0.59149998
-0.076832429 0.04802027 0.59224999
-0.073693246 0.048060812 0.59275001
-0.070578381 0.048121624 0.59350002
-0.067455411 0.048182435 0.59425002
-0.064297296 0.04822297 0.59474999
-0.061159458 0.048283782 0.59549999
-0.057989191 0.048324324 0.59600002
-0.054836489 0.048385136 0.59675002
-0.051654052 0.048425674 0.59724998
-0.048486486 0.048486486 0.59799999
-0.04531081 0.048547298 0.59875
-0.04210946 0.04858784 0.59925002
-0.03891892 0.048648648 0.60000002
-0.03572027 0.04870946 0.60075003
-0.03252703 0.048790541 0.60175002
-0.029310811 0.048851352 0.60250002
-0.026097298 0.048932433 0.60350001
-0.022872973 0.049013514 0.6045
-0.019637836 0.049094591 0.60549998
-0.016385134 0.049155407 0.60624999
-0.013118919 0.049195945 0.60675001
-0.0098472964 0.049236484 0.60724998
-0.0066243242 0.049682431 0.61274999
-0.0033297297 0.049945943 0.616
0 0.050027028 0.61699998
0.0033364866 0.050047301 0.61725003
0.0066729733 0.050047301 0.61725003
0.01000946 0.050047301 0.61725003
0.013351352 0.05006757 0.61750001
0.016689191 0.05006757 0.61750001
0.020035135 0.050087836 0.61774999
0.023374323 0.050087836 0.61774999
0.026724324 0.050108105 0.61799997
0.030077029 0.050128382 0.61825001
0.033445947 0.050168917 0.61874998
0.036805406 0.05018919 0.61900002
0.040183783 0.050229728 0.61949998
0.043550003 0.050250001 0.61975002
0.046937838 0.05029054 0.62024999
0.050331082 0.050331082 0.62075001
0.053751353 0.050391894 0.62150002
0.057202704 0.050472975 0.6225
0.060664862 0.050554052 0.62349999
0.064163513 0.050655406 0.62475002
0.067675672 0.050756752 0.62599999
0.071201354 0.05085811 0.62725002
0.076732434 0.052317571 0.64525002
0.080810808 0.052702699 0.64999998
0.084583789 0.052864864 0.65200001
0.08827702 0.052966215 0.65324998
0.091913506 0.053027023 0.65399998
0.095412165 0.053006757 0.65375
0.099097297 0.053087838 0.65474999
0.10263649 0.053087838 0.65474999
0.10617568 0.053087838 0.65474999
0.10984054 0.05314865 0.65549999
0.11338378 0.05314865 0.65549999
0.11697161 0.053168915 0.65574998
0.1207 0.05325 0.65675002
0.1242973 0.053270269 0.65700001
0.1279946 0.053331081 0.65775001
0.13135 0.05325 0.65675002
0.1349 0.05325 0.65675002
0.13818648 0.05314865 0.65549999
0.14151351 0.053067569 0.65450001
0.14482974 0.052986488 0.65350002
0.14796486 0.052844595 0.65175003
0.15142973 0.052824322 0.65149999
0.15477297 0.05276351 0.65074998
0.15822974 0.052743245 0.6505
0.16149729 0.052662164 0.64950001
0.16481757 0.052601352 0.64875001
0.1678054 0.052439187 0.64674997
0.17103648 0.052358106 0.64574999
0.1745946 0.052378379 0.64600003
0.17877568 0.052581083 0.64850003
0.18235135 0.052601352 0.64875001
0.18585812 0.052601352 0.64875001
0.18958379 0.052662164 0.64950001
0.1930946 0.052662164 0.64950001
0.19637838 0.052601352 0.64875001
0.19957703 0.052520271 0.64775002
0.20307839 0.052520271 0.64775002
0.2062608 0.052439187 0.64674997
0.20967567 0.052418917 0.64649999
0.21317026 0.052418917 0.64649999
0.21632974 0.05233784 0.6455
0.21990405 0.052358106 0.64574999
0.22374053 0.052439187 0.64674997
0.22758785 0.052520271 0.64775002
0.23171352 0.052662164 0.64950001
0.23486216 0.052581083 0.64850003
0.2380919 0.052520271 0.64775002
0.24149999 0.052499998 0.64749998
0.24462162 0.052418917 0.64649999
0.24782836 0.052358106 0.64574999
0.25092971 0.052277025 0.64475
0.25402027 0.052195948 0.64375001
0.25740001 0.052175675 0.64349997
0.26097974 0.052195948 0.64375001
0.26456216 0.052216213 0.64399999
0.26814729 0.052236486 0.64424998
0.27173513 0.052256759 0.64450002
0.27521893 0.052256759 0.64450002
0.27870271 0.052256759 0.64450002
0.28229594 0.052277025 0.64475
0.28544864 0.052216213 0.64399999
0.28881758 0.052195948 0.64375001
0.29241079 0.052216213 0.64399999
0.29623649 0.052277025 0.64475
0.29867566 0.052094594 0.64249998
0.30179593 0.052033782 0.64174998
0.30514595 0.052013513 0.6415
0.30873379 0.052033782 0.64174998
0.31268921 0.052114867 0.64275002
0.31616354 0.052114867 0.64275002
0.31914052 0.052033782 0.64174998
0.32223243 0.05197297 0.64099997
0.3256973 0.05197297 0.64099997
0.3296757 0.052054055 0.64200002
0.33405405 0.052195948 0.64375001
0.33661622 0.052054055 0.64200002
0.33995405 0.052033782 0.64174998
0.34235269 0.05187162 0.63975
0.3454054 0.051810808 0.639
0.34913245 0.051851355 0.63950002
0.35300273 0.051912166 0.64025003
0.3566027 0.051932432 0.64050001
0.35992435 0.051912166 0.64025003
0.36310133 0.05187162 0.63975
0.36641625 0.051851355 0.63950002
0.36958379 0.051810808 0.639
0.3728919 0.051790543 0.63875002
0.37605 0.051750001 0.63824999
0.37905404 0.051689189 0.63749999
0.38220003 0.05164865 0.63700002
0.38549188 0.051628377 0.63674998
0.38893378 0.051628377 0.63674998
0.39237568 0.051628377 0.63674998
0.39566216 0.051608108 0.6365
0.39894596 0.051587842 0.63625002
0.40191081 0.051527027 0.63550001
0.40486756 0.051466215 0.63475001
0.4074946 0.051364865 0.63349998
0.41027027 0.051283784 0.63249999
0.41336221 0.051243246 0.63200003
0.41710812 0.051283784 0.63249999
0.42169055 0.051425677 0.63424999
0.42411348 0.05130405 0.63274997
0.4268581 0.051222973 0.63174999
0.42993245 0.051182434 0.63125002
0.43300137 0.051141892 0.63075
-0.47135133 0.058918916 0.68124998
-0.47075811 0.059308108 0.68575001
-0.46994594 0.059675675 0.69
-0.46385136 0.059372973 0.68650001
-0.45846486 0.059156757 0.68400002
-0.45360404 0.059005406 0.68225002
-0.44876215 0.058854051 0.68049997
-0.44344863 0.058637835 0.67799997
-0.43978375 0.058637835 0.67799997
-0.4361189 0.058637835 0.67799997
-0.43213513 0.058594596 0.67750001
-0.42815673 0.058551349 0.67699999
-0.42434055 0.058529731 0.67675
-0.42083782 0.058551349 0.67699999
-0.41733244 0.058572974 0.67725003
-0.41382432 0.058594596 0.67750001
-0.41031352 0.058616217 0.67774999
-0.40709999 0.058681082 0.6785
-0.40417567 0.05878919 0.67975003
-0.40153244 0.058940541 0.68150002
-0.39741081 0.058875676 0.68075001
-0.39315271 0.05878919 0.67975003
-0.38775948 0.058529731 0.67675
-0.38381755 0.058486484 0.67624998
-0.37861621 0.05824865 0.6735
-0.37441894 0.058162164 0.67250001
-0.37023243 0.058075678 0.67150003
-0.36660272 0.058075678 0.67150003
-0.36310813 0.058097299 0.67175001
-0.35987839 0.058162164 0.67250001
-0.35637566 0.058183782 0.67275
-0.3532635 0.058270268 0.67374998
-0.35014051 0.058356754 0.67474997
-0.34752029 0.058529731 0.67675
-0.34437028 0.058616217 0.67774999
-0.34020406 0.058529731 0.67675
-0.33604866 0.058443245 0.67575002
-0.33214998 0.058399998 0.67524999
-0.32849997 0.058399998 0.67524999
-0.32497025 0.058421619 0.67549998
-0.32143784 0.058443245 0.67575002
-0.31790271 0.058464866 0.676
-0.31424865 0.058464866 0.676
-0.31070945 0.058486484 0.67624998
-0.30716756 0.058508109 0.67650002
-0.30306214 0.058421619 0.67549998
-0.29863513 0.058270268 0.67374998
-0.2945554 0.058183782 0.67275
-0.29081082 0.058162164 0.67250001
-0.28717569 0.058162164 0.67250001
-0.28364593 0.058183782 0.67275
-0.28000945 0.058183782 0.67275
-0.27637297 0.058183782 0.67275
-0.27314189 0.058270268 0.67374998
-0.26979998 0.058335133 0.67449999
-0.26615405 0.058335133 0.67449999
-0.26231351 0.058291893 0.67400002
-0.25819054 0.058183782 0.67275
-0.25427026 0.058118917 0.67199999
-0.25045136 0.058075678 0.67150003
-0.24663785 0.058032434 0.671
-0.24292028 0.058010813 0.67075002
-0.23920541 0.057989188 0.67049998
-0.23549324 0.057967566 0.67025
-0.23187026 0.057967566 0.67025
-0.22824728 0.057967566 0.67025
-0.22445676 0.057924323 0.66974998
-0.22141352 0.058075678 0.67150003
-0.21786487 0.058097299 0.67175001
-0.21439324 0.058140539 0.67224997
-0.21083784 0.058162164 0.67250001
-0.20712566 0.058140539 0.67224997
-0.20341621 0.058118917 0.67199999
-0.19978377 0.058118917 0.67199999
-0.19542162 0.057902701 0.66949999
-0.18807837 0.056778375 0.65649998
-0.16576757 0.051005404 0.58974999
-0.16161487 0.050702702 0.58625001
-0.15817569 0.05061622 0.58525002
-0.15474729 0.050529726 0.58424997
-0.15145946 0.050486486 0.58375001
-0.14817703 0.050443243 0.58324999
-0.14496216 0.050421622 0.583
-0.14175001 0.050400004 0.58275002
-0.13854054 0.050378378 0.58249998
-0.13539189 0.050378378 0.58249998
-0.13218649 0.050356757 0.58225
-0.12903918 0.050356757 0.58225
-0.12594594 0.050378378 0.58249998
-0.1227973 0.050378378 0.58249998
-0.11970001 0.050400004 0.58275002
-0.1166 0.050421622 0.583
-0.11349729 0.050443243 0.58324999
-0.1103919 0.050464869 0.58350003
-0.10732973 0.050508108 0.58399999
-0.10421756 0.050529726 0.58424997
-0.10114595 0.050572973 0.58475
-0.098068923 0.05061622 0.58525002
-0.094986483 0.050659459 0.58574998
-0.09193784 0.050724324 0.58649999
-0.088843241 0.050767567 0.58700001
-0.085779734 0.050832435 0.58775002
-0.082672969 0.050875675 0.58824998
-0.07959459 0.05094054 0.58899999
-0.076475672 0.050983783 0.58950001
-0.073382437 0.051048651 0.59025002
-0.070281088 0.051113516 0.59100002
-0.067143239 0.051156756 0.59149998
-0.064027026 0.05122162 0.59224999
-0.0609027 0.051286485 0.59299999
-0.057770267 0.05135135 0.59375
-0.054606758 0.051394597 0.59425002
-0.051459461 0.051459461 0.59500003
-0.048304051 0.051524322 0.59574997
-0.045140538 0.051589187 0.59649998
-0.041968916 0.051654052 0.59724998
-0.038789187 0.051718917 0.59799999
-0.035601351 0.051783785 0.59875
-0.032418918 0.051870268 0.59974998
-0.029225677 0.051956758 0.60075003
-0.026021622 0.052043244 0.60175002
-0.022806756 0.052129731 0.60275
-0.019589188 0.052237835 0.60399997
-0.016358107 0.052345946 0.60525
-0.013097297 0.05238919 0.60575002
-0.0098310811 0.052432433 0.60624999
-0.0065891892 0.052713513 0.60949999
-0.0033256756 0.05321081 0.61524999
0 0.053448647 0.61799997
0.0033459461 0.053535137 0.61900002
0.0066972971 0.053578377 0.61949998
0.010050001 0.053600002 0.61975002
0.013405406 0.053621624 0.62
0.016763512 0.053643242 0.62024999
0.020124326 0.053664867 0.62050003
0.023487838 0.053686488 0.62075001
0.026854053 0.053708106 0.62099999
0.030235136 0.053751353 0.62150002
0.033608109 0.053772971 0.62175
0.036998648 0.053816218 0.62225002
0.040378381 0.05383784 0.6225
0.04376081 0.053859457 0.62274998
0.047145948 0.053881083 0.62300003
0.050554052 0.053924322 0.62349999
0.053989187 0.053989187 0.62424999
0.057432435 0.054054055 0.625
0.060883787 0.05411892 0.62575001
0.064394593 0.054227024 0.62699997
0.067945942 0.054356754 0.62849998
0.072222978 0.05502703 0.63625002
0.076851353 0.055891894 0.64625001
0.080748647 0.056172974 0.64950001
0.084486485 0.056324326 0.65125
0.088141896 0.056410812 0.65224999
0.0917027 0.05643243 0.65249997
0.095229723 0.05643243 0.65249997
0.098643243 0.056367569 0.65175003
0.10212702 0.056345943 0.65149999
0.10552702 0.056281079 0.65074998
0.10921217 0.056367569 0.65175003
0.11273514 0.056367569 0.65175003
0.11643649 0.056454055 0.65275002
0.12014865 0.056540541 0.65375
0.12382433 0.056605406 0.65450001
0.12736216 0.056605406 0.65450001
0.13070001 0.05651892 0.65350002
0.13402702 0.05643243 0.65249997
0.13734324 0.056345943 0.65149999
0.14081082 0.056324326 0.65125
0.14394325 0.056172974 0.64950001
0.14722703 0.056086488 0.64850003
0.1505 0.055999998 0.64749998
0.154 0.055999998 0.64749998
0.1575 0.055999998 0.64749998
0.16075134 0.055913512 0.64649999
0.16405541 0.055848647 0.64574999
0.16728649 0.055762161 0.64475
0.17057297 0.055697296 0.64399999
0.17405406 0.055697296 0.64399999
0.1778108 0.055783782 0.64499998
0.18129729 0.055783782 0.64499998
0.18478377 0.055783782 0.64499998
0.18841623 0.055827029 0.6455
0.19197972 0.055848647 0.64574999
0.19539461 0.055827029 0.6455
0.19888379 0.055827029 0.6455
0.2022946 0.055805407 0.64525002
0.20506488 0.055610813 0.64300001
0.20813513 0.055502702 0.64174998
0.21143919 0.055459462 0.64125001
0.21473783 0.055416215 0.64074999
0.21837163 0.055459462 0.64125001
0.22201081 0.055502702 0.64174998
0.22583109 0.055589192 0.64275002
0.22957297 0.055654053 0.64349997
0.23323242 0.055697296 0.64399999
0.23698919 0.055762161 0.64475
0.24047431 0.055762161 0.64475
0.24329731 0.055610813 0.64300001
0.24629323 0.055502702 0.64174998
0.24908108 0.05535135 0.63999999
0.25175136 0.055178378 0.63800001
0.2552 0.055178378 0.63800001
0.25915539 0.055286486 0.63924998
0.26281622 0.055329729 0.63975
0.26648244 0.055372976 0.64025003
0.27004865 0.055394594 0.64050001
0.27351081 0.055394594 0.64050001
0.27697298 0.055394594 0.64050001
0.28032568 0.055372976 0.64025003
0.28356487 0.055329729 0.63975
0.28702298 0.055329729 0.63975
0.29082161 0.055394594 0.64050001
0.2935946 0.055264864 0.639
0.29646757 0.05515676 0.63775003
0.29956219 0.055091895 0.63700002
0.30288649 0.05507027 0.63674998
0.30644867 0.055091895 0.63700002
0.31025678 0.05515676 0.63775003
0.31370407 0.05515676 0.63775003
0.31677839 0.055091895 0.63700002
0.32009596 0.05507027 0.63674998
0.32366487 0.055091895 0.63700002
0.32736486 0.055135135 0.63749999
0.33081082 0.055135135 0.63749999
0.33360139 0.05502703 0.63625002
0.33584866 0.054832432 0.634
0.33940947 0.054854054 0.63424999
0.34283784 0.054854054 0.63424999
0.3465392 0.054897297 0.63475001
0.35010812 0.054918919 0.63499999
0.35381892 0.054962162 0.63550001
0.35725406 0.054962162 0.63550001
0.36054727 0.054940537 0.63524997
0.36398107 0.054940537 0.63524997
0.36727026 0.054918919 0.63499999
0.37055674 0.054897297 0.63475001
0.37354594 0.054832432 0.634
0.37637839 0.054745946 0.63300002
0.37905002 0.054637838 0.63174999
0.38291892 0.054702703 0.63249999
0.38649052 0.054724321 0.63274997
0.38991079 0.054724321 0.63274997
0.39364189 0.054767568 0.63325
0.39675131 0.054724321 0.63274997
0.39969733 0.054659463 0.63200003
0.40247566 0.05457297 0.63099998
0.40492159 0.05444324 0.62949997
0.4067027 0.054227024 0.62699997
0.40943781 0.054140538 0.62599999
0.41331622 0.054205406 0.62674999
0.41736889 0.054291889 0.62774998
0.42076215 0.054291889 0.62774998
0.42347974 0.054205406 0.62674999
0.4261865 0.05411892 0.62575001
0.42905405 0.054054055 0.625
-0.46996757 0.062417567 0.67925
-0.46749729 0.06257838 0.68099999
-0.46449727 0.062670268 0.68199998
-0.46013513 0.06257838 0.68099999
-0.45544863 0.062440537 0.67949998
-0.4509446 0.062325675 0.67825001
-0.44628921 0.062187839 0.67675
-0.4418135 0.06207297 0.67549998
-0.43767565 0.062004052 0.67474997
-0.43370676 0.061958108 0.67425001
-0.4299027 0.061935138 0.67400002
-0.42594326 0.06188919 0.6735
-0.42214596 0.061866216 0.67325002
-0.41850677 0.061866216 0.67325002
-0.4147135 0.061843242 0.67299998
-0.41122839 0.061866216 0.67325002
-0.40774056 0.06188919 0.6735
-0.40425 0.06191216 0.67374998
-0.40120268 0.062004052 0.67474997
-0.39873379 0.062187839 0.67675
-0.3960973 0.062348649 0.6785
-0.39054999 0.062049996 0.67524999
-0.38518107 0.061774321 0.67224997
-0.37998646 0.06152162 0.66949999
-0.37397838 0.061131079 0.66525
-0.37024325 0.061108112 0.66500002
-0.36747566 0.061245944 0.66649997
-0.36441892 0.06133784 0.66750002
-0.36135137 0.061429732 0.66850001
-0.35787162 0.061452702 0.66874999
-0.35465404 0.06152162 0.66949999
-0.35155946 0.061613511 0.67049998
-0.34845406 0.061705407 0.67150003
-0.34533784 0.061797298 0.67250001
-0.34157565 0.061774321 0.67224997
-0.33769056 0.061728381 0.67175001
-0.33381081 0.061682429 0.67124999
-0.33018243 0.061682429 0.67124999
-0.32655403 0.061682429 0.67124999
-0.32304597 0.061705407 0.67150003
-0.31953514 0.061728381 0.67175001
-0.31602162 0.061751351 0.67199999
-0.31250539 0.061774321 0.67224997
-0.30910134 0.061820269 0.67275
-0.30580541 0.06188919 0.6735
-0.30137974 0.061728381 0.67175001
-0.29686216 0.061544593 0.66974998
-0.29280403 0.061452702 0.66874999
-0.28918919 0.061452702 0.66874999
-0.28557432 0.061452702 0.66874999
-0.28227568 0.06152162 0.66949999
-0.2783446 0.061452702 0.66874999
-0.2743189 0.06136081 0.66775
-0.27040541 0.061291892 0.667
-0.26770002 0.061498649 0.66925001
-0.26427972 0.061544593 0.66974998
-0.26056215 0.06152162 0.66949999
-0.25684732 0.061498649 0.66925001
-0.25294596 0.061429732 0.66850001
-0.24914594 0.061383784 0.66799998
-0.24525945 0.061314862 0.66724998
-0.24156216 0.061291892 0.667
-0.23786758 0.061268922 0.66675001
-0.23417567 0.061245944 0.66649997
-0.2304 0.0612 0.66600001
-0.22705542 0.061268922 0.66675001
-0.22403784 0.061429732 0.66850001
-0.22042434 0.061429732 0.66850001
-0.21681082 0.061429732 0.66850001
-0.21303783 0.061383784 0.66799998
-0.20942703 0.061383784 0.66799998
-0.20581621 0.061383784 0.66799998
-0.2022054 0.061383784 0.66799998
-0.19852027 0.06136081 0.66775
-0.19381621 0.061016217 0.66399997
-0.18557163 0.059522975 0.64775002
-0.16443244 0.053756755 0.58499998
-0.16071892 0.053572971 0.583
-0.1572973 0.05348108 0.58200002
-0.1539527 0.053412162 0.58125001
-0.15068108 0.053366218 0.58074999
-0.14741486 0.05332027 0.58025002
-0.14421621 0.053297292 0.57999998
-0.14102027 0.053274326 0.57975
-0.13782702 0.053251352 0.57950002
-0.13469459 0.053251352 0.57950002
-0.13156216 0.053251352 0.57950002
-0.12842973 0.053251352 0.57950002
-0.12529729 0.053251352 0.57950002
-0.12221757 0.053274326 0.57975
-0.11913513 0.053297292 0.57999998
-0.11605 0.05332027 0.58025002
-0.11296216 0.053343244 0.58050001
-0.10991891 0.053389184 0.58099997
-0.10687027 0.053435136 0.58149999
-0.10377161 0.053458106 0.58174998
-0.10075676 0.053527027 0.58249998
-0.097691894 0.053572971 0.583
-0.094621629 0.053618923 0.58350003
-0.091585129 0.053687833 0.58424997
-0.088502705 0.053733785 0.58475
-0.08545135 0.053802703 0.5855
-0.082356766 0.053848654 0.58600003
-0.079290532 0.053917564 0.58674997
-0.076216213 0.053986486 0.58749998
-0.073133782 0.054055404 0.58824998
-0.070043243 0.054124322 0.58899999
-0.066944592 0.054193243 0.58974999
-0.063837834 0.054262161 0.5905
-0.060722973 0.054331079 0.59125
-0.05757568 0.054377031 0.59175003
-0.054445945 0.054445945 0.59249997
-0.051308107 0.054514863 0.59324998
-0.048162162 0.05458378 0.59399998
-0.045008108 0.054652702 0.59474999
-0.041845944 0.05472162 0.59549999
-0.038675673 0.054790538 0.59625
-0.035512161 0.05488243 0.59724998
-0.032337837 0.054974321 0.59824997
-0.029152703 0.055066217 0.59925002
-0.025967566 0.055181079 0.60049999
-0.022768918 0.055295948 0.60175002
-0.019564865 0.055433784 0.60325003
-0.016337838 0.055548649 0.6045
-0.013091891 0.055640537 0.60549998
-0.0098270271 0.055686489 0.60600001
-0.0065648644 0.055801347 0.60724998
-0.0033121621 0.056306757 0.61274999
0 0.05678919 0.61799997
0.0033554055 0.057041895 0.62075001
0.0067216214 0.057133783 0.62175
0.010090541 0.05717973 0.62225002
0.013464864 0.057225674 0.62274998
0.016844595 0.057271622 0.62325001
0.020229729 0.057317566 0.62374997
0.02362027 0.05736351 0.62424999
0.027016217 0.057409462 0.62475002
0.030417565 0.057455402 0.62524998
0.033824325 0.057501353 0.62575001
0.037236486 0.057547297 0.62625003
0.040654056 0.057593245 0.62674999
0.044041894 0.057593245 0.62674999
0.047429729 0.057593245 0.62674999
0.050837837 0.057616211 0.62699997
0.054291889 0.057685133 0.62774998
0.057754051 0.057754051 0.62849998
0.061248645 0.057845943 0.62949997
0.065036483 0.058190539 0.63325
0.069378376 0.058971621 0.64174998
0.073159464 0.059224326 0.64450002
0.076910809 0.05943108 0.64674997
0.080593243 0.059568916 0.64824998
0.084259465 0.059683785 0.64950001
0.087871626 0.059752703 0.65025002
0.091421627 0.059775677 0.6505
0.094682433 0.059614867 0.64875001
0.09818919 0.059614867 0.64875001
0.10165676 0.059591893 0.64850003
0.10504054 0.059522975 0.64775002
0.10866757 0.059591893 0.64850003
0.11221622 0.059614867 0.64875001
0.11603514 0.059775677 0.6505
0.11987297 0.059936486 0.65224999
0.12339865 0.059936486 0.65224999
0.12672973 0.059844594 0.65125
0.12970001 0.059591893 0.64850003
0.133 0.059499998 0.64749998
0.13597296 0.05927027 0.64499998
0.1391892 0.059155408 0.64375001
0.14228109 0.058994599 0.64200002
0.14592163 0.059063517 0.64275002
0.14933783 0.059040539 0.64249998
0.15287028 0.059063517 0.64275002
0.15640542 0.05908649 0.64300001
0.15994324 0.059109457 0.64324999
0.16373785 0.059224326 0.64450002
0.16676757 0.059063517 0.64275002
0.17024189 0.059063517 0.64275002
0.17371622 0.059063517 0.64275002
0.17746623 0.059155408 0.64375001
0.18094595 0.059155408 0.64375001
0.18392433 0.058994599 0.64200002
0.1873946 0.058994599 0.64200002
0.19086488 0.058994599 0.64200002
0.19433515 0.058994599 0.64200002
0.19772838 0.058971621 0.64174998
0.20033513 0.05871892 0.639
0.20339055 0.058604058 0.63775003
0.20643243 0.058489189 0.6365
0.20962568 0.058420271 0.63575
0.21306217 0.058420271 0.63575
0.21666893 0.058466218 0.63625002
0.22036758 0.05853514 0.63700002
0.22398649 0.05858108 0.63749999
0.2277 0.058649998 0.63824999
0.23142162 0.05871892 0.639
0.23542702 0.058856755 0.64050001
0.23860946 0.058787838 0.63975
0.24206756 0.058787838 0.63975
0.24475813 0.058604058 0.63775003
0.24781622 0.058512162 0.63674998
0.25086352 0.058420271 0.63575
0.2543 0.058420271 0.63575
0.25783783 0.058443245 0.63599998
0.26127568 0.058443245 0.63599998
0.26492161 0.058489189 0.6365
0.26846758 0.058512162 0.63674998
0.27190945 0.058512162 0.63674998
0.27524325 0.058489189 0.6365
0.27846485 0.058443245 0.63599998
0.28157026 0.058374319 0.63524997
0.28466758 0.058305409 0.63450003
0.28775677 0.058236487 0.63375002
0.29083782 0.058167569 0.63300002
0.2939108 0.058098648 0.63225001
0.29721084 0.058075681 0.63200003
0.3003892 0.05802973 0.63150001
0.3038027 0.05802973 0.63150001
0.30685136 0.057960812 0.63075
0.31075269 0.058052704 0.63174999
0.31416756 0.058052704 0.63174999
0.31783378 0.058098648 0.63225001
0.3215054 0.058144592 0.63274997
0.32505405 0.058167569 0.63300002
0.32834592 0.058144592 0.63274997
0.33124191 0.058052704 0.63174999
0.3335973 0.05786892 0.62975001
0.33646622 0.057777029 0.62875003
0.34027025 0.057845943 0.62949997
0.34380946 0.05786892 0.62975001
0.34748918 0.057914861 0.63024998
0.35103515 0.057937838 0.63050002
0.3545838 0.057960812 0.63075
0.35799325 0.057960812 0.63075
0.36168918 0.058006756 0.63125002
0.36510137 0.058006756 0.63125002
0.36836755 0.057983778 0.63099998
0.37148377 0.057937838 0.63050002
0.37385136 0.057777029 0.62875003
0.37725002 0.057777029 0.62875003
0.38064864 0.057777029 0.62875003
0.38511622 0.057937838 0.63050002
0.38852432 0.057937838 0.63050002
0.39193243 0.057937838 0.63050002
0.39487028 0.05786892 0.62975001
0.3976419 0.057777029 0.62875003
0.40040269 0.057685133 0.62774998
0.4031527 0.057593245 0.62674999
0.4058919 0.057501353 0.62575001
0.40927434 0.057501353 0.62575001
0.41265675 0.057501353 0.62575001
0.4160392 0.057501353 0.62575001
0.41824865 0.057340544 0.62400001
0.42162162 0.057340544 0.62400001
0.42431352 0.057248652 0.62300003
0.42768109 0.057248652 0.62300003
-0.46754596 0.065748647 0.67575002
-0.46423647 0.065797292 0.67624998
-0.46075135 0.065821625 0.67650002
-0.45675677 0.065772973 0.676
-0.45259997 0.065699995 0.67524999
-0.44828513 0.065602705 0.67425001
-0.44381621 0.065481082 0.67299998
-0.43952432 0.065383784 0.67199999
-0.43556759 0.06533514 0.67150003
-0.43161622 0.065286487 0.671
-0.42767027 0.065237835 0.67049998
-0.42372975 0.06518919 0.67000002
-0.41963786 0.065116219 0.66925001
-0.41602027 0.065116219 0.66925001
-0.41209459 0.065067567 0.66874999
-0.40847972 0.065067567 0.66874999
-0.40547025 0.065164864 0.66974998
-0.40305001 0.065359458 0.67175001
-0.40001351 0.065456755 0.67275
-0.39637703 0.065456755 0.67275
-0.39259461 0.065432437 0.67250001
-0.38765809 0.065213509 0.67025
-0.38245946 0.064945951 0.66750002
-0.37700677 0.064629734 0.66425002
-0.37116757 0.064240538 0.66025001
-0.36745948 0.064216219 0.66000003
-0.36444324 0.064313516 0.66100001
-0.36141622 0.064410813 0.662
-0.35837838 0.06450811 0.66299999
-0.35573107 0.064678378 0.66474998
-0.35266757 0.064775676 0.66575003
-0.34919998 0.064800002 0.66600001
-0.34585947 0.064848647 0.66649997
-0.34238514 0.064872973 0.66675001
-0.33878109 0.064872973 0.66675001
-0.33517703 0.064872973 0.66675001
-0.33157298 0.064872973 0.66675001
-0.32809189 0.064897299 0.667
-0.32460809 0.064921618 0.66724998
-0.32112163 0.064945951 0.66750002
-0.31763244 0.06497027 0.66775
-0.31425813 0.065018922 0.66825002
-0.31076217 0.065043248 0.66850001
-0.30726349 0.065067567 0.66874999
-0.30387568 0.065116219 0.66925001
-0.30037028 0.065140538 0.66949999
-0.29586488 0.064945951 0.66750002
-0.29159999 0.064800002 0.66600001
-0.28789189 0.064775676 0.66575003
-0.28461352 0.064848647 0.66649997
-0.28143245 0.064945951 0.66750002
-0.27772027 0.064921618 0.66724998
-0.27349731 0.064775676 0.66575003
-0.26959461 0.064702705 0.66500002
-0.26620001 0.064751349 0.66549999
-0.26270136 0.064775676 0.66575003
-0.2591027 0.064775676 0.66575003
-0.25540811 0.064751349 0.66549999
-0.25171623 0.064727023 0.66525
-0.24784054 0.064654052 0.6645
-0.2436973 0.06450811 0.66299999
-0.24011351 0.06450811 0.66299999
-0.23652972 0.06450811 0.66299999
-0.23294595 0.06450811 0.66299999
-0.22936216 0.06450811 0.66299999
-0.22662972 0.064751349 0.66549999
-0.22311623 0.064775676 0.66575003
-0.21894054 0.064605407 0.66399997
-0.21445946 0.064337835 0.66125
-0.21152298 0.064532436 0.66325003
-0.2080946 0.064581081 0.66374999
-0.20458378 0.064605407 0.66399997
-0.2009946 0.064605407 0.66399997
-0.19733109 0.064581081 0.66374999
-0.19308649 0.064362161 0.66149998
-0.18772027 0.063754052 0.65525001
-0.16450271 0.056943245 0.58525002
-0.15996081 0.056456756 0.58025002
-0.15662162 0.056383785 0.57950002
-0.15329054 0.05631081 0.57875001
-0.14996757 0.056237839 0.57800001
-0.14677973 0.056213513 0.57775003
-0.14353244 0.056164864 0.57725
-0.14035136 0.056140542 0.57700002
-0.13723244 0.056140542 0.57700002
-0.13405539 0.056116212 0.57674998
-0.13093783 0.056116212 0.57674998
-0.12787567 0.056140542 0.57700002
-0.12475676 0.056140542 0.57700002
-0.12169054 0.056164864 0.57725
-0.11862162 0.056189187 0.57749999
-0.1156 0.056237839 0.57800001
-0.11252432 0.056262162 0.57824999
-0.10949325 0.05631081 0.57875001
-0.10645675 0.056359455 0.57924998
-0.10341486 0.056408107 0.57975
-0.10041081 0.056481082 0.58050001
-0.097356752 0.056529727 0.58099997
-0.094337828 0.056602698 0.58174998
-0.091310814 0.056675676 0.58249998
-0.088237837 0.056724325 0.583
-0.085195944 0.056797296 0.58375001
-0.082145944 0.056870271 0.58450001
-0.079087846 0.056943245 0.58525002
-0.076021627 0.05701622 0.58600003
-0.072947294 0.057089183 0.58674997
-0.069864862 0.057162162 0.58749998
-0.066774324 0.057235133 0.58824998
-0.063675672 0.057308108 0.58899999
-0.060594592 0.057405405 0.58999997
-0.057478376 0.057478376 0.59074998
-0.054354053 0.05755135 0.59149998
-0.05122162 0.057624321 0.59224999
-0.048081081 0.057697296 0.59299999
-0.044932432 0.057770267 0.59375
-0.041775677 0.057843246 0.59450001
-0.038627025 0.057940539 0.59549999
-0.035452701 0.05801351 0.59625
-0.032297298 0.058135137 0.59750003
-0.029116217 0.058232434 0.59850001
-0.025935134 0.05835405 0.59974998
-0.022750001 0.058499999 0.60124999
-0.019556755 0.058670267 0.60299999
-0.016337838 0.058816217 0.6045
-0.013097297 0.05893784 0.60575002
-0.0098351361 0.059010815 0.60650003
-0.0065621622 0.05905946 0.60699999
-0.0032986486 0.059375674 0.61025
0 0.059910815 0.61575001
0.0033608107 0.060494594 0.62175
0.0067540542 0.060786489 0.62475002
0.010139189 0.060835131 0.62524998
0.013535134 0.060908105 0.62599999
0.016932433 0.060956758 0.62650001
0.020343244 0.061029732 0.62725002
0.023752701 0.061078377 0.62774998
0.027178377 0.061151348 0.62849998
0.030612163 0.061224326 0.62924999
0.034054056 0.061297297 0.63
0.037504055 0.061370272 0.63075
0.040962163 0.061443243 0.63150001
0.044410814 0.061491895 0.63200003
0.047864866 0.06154054 0.63249999
0.051344596 0.061613515 0.63325
0.054875679 0.061735138 0.63450003
0.058489189 0.061929729 0.6365
0.062124323 0.062124323 0.63849998
0.065755412 0.062294599 0.64025003
0.069405407 0.062464867 0.64200002
0.073017567 0.062586486 0.64324999
0.076672971 0.062732428 0.64475
0.080251351 0.062805407 0.6455
0.083870269 0.062902704 0.64649999
0.087499999 0.063000001 0.64749998
0.090999998 0.063000001 0.64749998
0.094354048 0.062902704 0.64649999
0.097735129 0.062829725 0.64574999
0.10118649 0.062805407 0.6455
0.10467568 0.062805407 0.6455
0.10808108 0.062756754 0.64499998
0.11169729 0.062829725 0.64574999
0.11532162 0.062902704 0.64649999
0.11881621 0.062902704 0.64649999
0.12164865 0.062562168 0.64300001
0.12492973 0.062464867 0.64200002
0.12799999 0.062270269 0.63999999
0.13145946 0.062270269 0.63999999
0.13470811 0.062172972 0.639
0.13772973 0.061978381 0.63700002
0.14095135 0.06188108 0.63599998
0.14438918 0.06188108 0.63599998
0.14811757 0.062002704 0.63725001
0.15174054 0.062075675 0.63800001
0.15525 0.062100001 0.63824999
0.15876216 0.062124323 0.63849998
0.16227704 0.062148653 0.63875002
0.16572973 0.062148653 0.63875002
0.16891758 0.062051356 0.63775003
0.17263514 0.062148653 0.63875002
0.17663918 0.062343244 0.64074999
0.18038379 0.062440541 0.64174998
0.18356621 0.062343244 0.64074999
0.18702972 0.062343244 0.64074999
0.19079053 0.062440541 0.64174998
0.19395675 0.062343244 0.64074999
0.19657297 0.062075675 0.63800001
0.19931622 0.061856758 0.63575
0.20179594 0.061564863 0.63274997
0.20456757 0.061370272 0.63075
0.20764729 0.061272975 0.62975001
0.21105136 0.061272975 0.62975001
0.21496622 0.061418921 0.63125002
0.21863785 0.061491895 0.63200003
0.22231755 0.061564863 0.63274997
0.22582702 0.061589189 0.63300002
0.22915809 0.061564863 0.63274997
0.23257837 0.061564863 0.63274997
0.23599863 0.061564863 0.63274997
0.23941891 0.061564863 0.63274997
0.24283917 0.061564863 0.63274997
0.24625945 0.061564863 0.63274997
0.24967971 0.061564863 0.63274997
0.2534 0.061637837 0.63349998
0.25652024 0.061564863 0.63274997
0.26004323 0.061589189 0.63300002
0.26356891 0.061613515 0.63325
0.26699188 0.061613515 0.63325
0.27041486 0.061613515 0.63325
0.27362162 0.061564863 0.63274997
0.27682298 0.061516218 0.63225001
0.27968648 0.061394591 0.63099998
0.2824243 0.061248645 0.62949997
0.28469187 0.061005402 0.62699997
0.28808108 0.061005402 0.62699997
0.29135406 0.060981084 0.62674999
0.2947419 0.060981084 0.62674999
0.29777294 0.060908105 0.62599999
0.30151758 0.060981084 0.62674999
0.30490541 0.060981084 0.62674999
0.30866218 0.061054055 0.6275
0.31255132 0.061151348 0.62849998
0.31557161 0.061078377 0.62774998
0.31960002 0.0612 0.62900001
0.32312837 0.061224326 0.62924999
0.32640001 0.0612 0.62900001
0.32953781 0.061151348 0.62849998
0.33240542 0.061054055 0.6275
0.33486083 0.060883787 0.62575001
0.33783785 0.060810812 0.625
0.34121624 0.060810812 0.625
0.34500811 0.060883787 0.62575001
0.34839055 0.060883787 0.62575001
0.35233516 0.060981084 0.62674999
0.35671619 0.061151348 0.62849998
0.35982704 0.061102703 0.62800002
0.36322162 0.061102703 0.62800002
0.36661622 0.061102703 0.62800002
0.36971623 0.061054055 0.6275
0.37251353 0.060956758 0.62650001
0.37545002 0.060883787 0.62575001
0.37883243 0.060883787 0.62575001
0.38282567 0.060981084 0.62674999
0.38729188 0.061151348 0.62849998
0.39068916 0.061151348 0.62849998
0.39345947 0.061054055 0.6275
0.39621893 0.060956758 0.62650001
0.39912704 0.060883787 0.62575001
0.40234867 0.06085946 0.62550002
0.40572974 0.06085946 0.62550002
0.40911081 0.06085946 0.62550002
0.41249189 0.06085946 0.62550002
0.41587299 0.06085946 0.62550002
0.41824865 0.060713515 0.62400001
0.42094597 0.060616218 0.62300003
0.42431352 0.060616218 0.62300003
0.42750946 0.060591891 0.62274998
-0.46477839 0.068990543 0.67175001
-0.46131891 0.069016211 0.67199999
-0.45768648 0.069016211 0.67199999
-0.45371622 0.068964869 0.67150003
-0.44975138 0.068913519 0.671
-0.44562566 0.068836488 0.67025
-0.44134325 0.068733789 0.66925001
-0.43723515 0.068656757 0.66850001
-0.43329728 0.068605401 0.66799998
-0.42920405 0.068528377 0.66724998
-0.42543784 0.068502702 0.667
-0.42135811 0.068425678 0.66624999
-0.41697299 0.068297304 0.66500002
-0.414 0.068399996 0.66600001
-0.41132435 0.068554059 0.66750002
-0.40832704 0.068656757 0.66850001
-0.40531892 0.068759456 0.66949999
-0.40290001 0.068964869 0.67150003
-0.3997162 0.069041893 0.67224997
-0.39446214 0.068759456 0.66949999
-0.38996756 0.068605401 0.66799998
-0.38519999 0.068399996 0.66600001
-0.38002434 0.068117574 0.66325003
-0.37459463 0.067783788 0.66000003
-0.3699027 0.067578375 0.65799999
-0.3667635 0.067655407 0.65875
-0.36334053 0.067681082 0.65899998
-0.36032435 0.067783788 0.66000003
-0.35716215 0.067860804 0.66074997
-0.35412571 0.067963518 0.66175002
-0.35054865 0.067963518 0.66175002
-0.34697163 0.067963518 0.66175002
-0.34300542 0.067886487 0.66100001
-0.33943242 0.067886487 0.66100001
-0.33624056 0.067963518 0.66175002
-0.33266354 0.067963518 0.66175002
-0.32921082 0.067989185 0.662
-0.32587841 0.068040542 0.66250002
-0.32254055 0.068091892 0.66299999
-0.3191973 0.068143241 0.66350001
-0.31584865 0.068194591 0.66399997
-0.31249458 0.068245947 0.6645
-0.30901891 0.068271622 0.66474998
-0.30554056 0.068297304 0.66500002
-0.30194595 0.068297304 0.66500002
-0.29823917 0.068271622 0.66474998
-0.29409188 0.068143241 0.66350001
-0.28984866 0.067989185 0.662
-0.28540543 0.067783788 0.66000003
-0.28183785 0.067783788 0.66000003
-0.27869189 0.067886487 0.66100001
-0.27511892 0.067886487 0.66100001
-0.27154595 0.067886487 0.66100001
-0.26837838 0.067989185 0.662
-0.26480001 0.067989185 0.662
-0.26122162 0.067989185 0.662
-0.25764325 0.067989185 0.662
-0.25416082 0.068014868 0.66224998
-0.25058109 0.068014868 0.66224998
-0.24690811 0.067989185 0.662
-0.24360541 0.068066217 0.66275001
-0.23966083 0.067963518 0.66175002
-0.23572701 0.067860804 0.66074997
-0.23180406 0.067758106 0.65974998
-0.22823784 0.067758106 0.65974998
-0.22501215 0.067860804 0.66074997
-0.22144052 0.067860804 0.66074997
-0.21786891 0.067860804 0.66074997
-0.21397297 0.067758106 0.65974998
-0.2104865 0.067783788 0.66000003
-0.20691893 0.067783788 0.66000003
-0.20335136 0.067783788 0.66000003
-0.1997838 0.067783788 0.66000003
-0.1961419 0.067758106 0.65974998
-0.19206487 0.067578375 0.65799999
-0.18764864 0.067270264 0.65499997
-0.17314595 0.063264862 0.616
-0.15927163 0.059336487 0.57775003
-0.15594594 0.059259459 0.57700002
-0.15262838 0.059182435 0.57625002
-0.14938378 0.059131082 0.57574999
-0.1461446 0.059079733 0.57525003
-0.14297296 0.059054051 0.57499999
-0.13980405 0.05902838 0.57475001
-0.13663784 0.059002705 0.57450002
-0.13353243 0.059002705 0.57450002
-0.13042703 0.059002705 0.57450002
-0.12737703 0.05902838 0.57475001
-0.12432432 0.059054051 0.57499999
-0.12126892 0.059079733 0.57525003
-0.11821081 0.059105407 0.57550001
-0.11519999 0.059156753 0.57599998
-0.11218379 0.05920811 0.5765
-0.10916217 0.059259459 0.57700002
-0.10613513 0.059310809 0.57749999
-0.1031473 0.05938784 0.57824999
-0.10010811 0.05943919 0.57875001
-0.097105406 0.059516218 0.57950002
-0.094094597 0.059593245 0.58025002
-0.091075666 0.059670266 0.58099997
-0.088048644 0.059747294 0.58174998
-0.085050009 0.059850004 0.58275002
-0.082005411 0.059927031 0.58350003
-0.0789527 0.060004048 0.58424997
-0.07589189 0.06008108 0.58499998
-0.072822973 0.060158107 0.58574998
-0.069775671 0.060260806 0.58674997
-0.066689186 0.060337838 0.58749998
-0.063594595 0.060414866 0.58824998
-0.06049189 0.06049189 0.58899999
-0.057405405 0.060594592 0.58999997
-0.054285135 0.06067162 0.59074998
-0.051156756 0.060748648 0.59149998
-0.04802027 0.060825676 0.59224999
-0.044894595 0.060928378 0.59324998
-0.04174054 0.061005402 0.59399998
-0.038594596 0.061108112 0.59500003
-0.035437837 0.061210811 0.59600002
-0.032270271 0.061313517 0.597
-0.029104052 0.061441891 0.59824997
-0.025924325 0.061570272 0.5995
-0.022750001 0.061750002 0.60124999
-0.019556755 0.061929725 0.60299999
-0.016344594 0.062109455 0.60474998
-0.013108108 0.062263515 0.60624999
-0.0098472964 0.062366214 0.60724998
-0.0065675676 0.062391892 0.60750002
-0.0032972973 0.062648647 0.61000001
0 0.063059464 0.61400002
0.0033567566 0.063778378 0.62099999
0.0067810812 0.064420268 0.62725002
0.010191891 0.064548641 0.62849998
0.01361081 0.064651348 0.62949997
0.017033782 0.064728372 0.63024998
0.020456757 0.064779729 0.63075
0.023894595 0.06485676 0.63150001
0.027329732 0.06490811 0.63200003
0.03077027 0.064959459 0.63249999
0.034229729 0.065036483 0.63325
0.037697297 0.065113515 0.634
0.041156761 0.065164872 0.63450003
0.044639185 0.065241888 0.63524997
0.048110809 0.065293245 0.63575
0.051608108 0.065370269 0.6365
0.055135135 0.065472975 0.63749999
0.058672972 0.065575674 0.63849998
0.062245946 0.065704055 0.63975
0.065755412 0.065755412 0.64025003
0.069243245 0.065781079 0.64050001
0.072733782 0.065806754 0.64074999
0.076227024 0.065832429 0.64099997
0.079785131 0.06590946 0.64174998
0.083383784 0.066012166 0.64275002
0.086993247 0.066114865 0.64375001
0.0904027 0.066063508 0.64324999
0.093806759 0.066012166 0.64275002
0.097243242 0.065986484 0.64249998
0.10075541 0.066012166 0.64275002
0.10422973 0.066012166 0.64275002
0.10770406 0.066012166 0.64275002
0.11113513 0.065986484 0.64249998
0.11425135 0.065781079 0.64050001
0.11752973 0.06567838 0.63950002
0.12051352 0.065421626 0.63700002
0.12376216 0.06531892 0.63599998
0.12719999 0.06531892 0.63599998
0.13063784 0.06531892 0.63599998
0.13402297 0.065293245 0.63575
0.13718919 0.065164872 0.63450003
0.1404527 0.06508784 0.63375002
0.14365134 0.064985134 0.63274997
0.14707161 0.064985134 0.63274997
0.15072973 0.06508784 0.63375002
0.15421622 0.065113515 0.634
