# .PCD v0.7 - Point Cloud Data file format
VERSION 0.7
FIELDS x y z
SIZE 4 4 4
TYPE F F F
COUNT 1 1 1
WIDTH 1456
HEIGHT 1
VIEWPOINT 0 0 0 1 0 0 0
POINTS 1456
DATA ascii
0.20972973 0.13763514 0.60624999
0.21300676 0.13763514 0.60624999
0.216373 0.1376919 0.60650003
0.21965137 0.1376919 0.60650003
0.22283784 0.13763514 0.60624999
0.22611487 0.13763514 0.60624999
0.22948651 0.1376919 0.60650003
0.23286082 0.13774864 0.60675001
0.23614055 0.13774864 0.60675001
0.23942026 0.13774864 0.60675001
0.2427 0.13774864 0.60675001
0.24597973 0.13774864 0.60675001
0.24925946 0.13774864 0.60675001
0.25253919 0.13774864 0.60675001
0.25581893 0.13774864 0.60675001
0.25909865 0.13774864 0.60675001
0.26237839 0.13774864 0.60675001
0.26576757 0.1378054 0.60699999
0.26915944 0.13786215 0.60724998
0.27232972 0.1378054 0.60699999
0.2749297 0.13746485 0.60549998
0.27659461 0.13667028 0.602
0.27729189 0.13542162 0.59649998
0.27757704 0.13400272 0.59025002
0.27815136 0.13275406 0.58475
0.27902701 0.13167566 0.57999998
0.28009459 0.13071081 0.57574999
0.28123918 0.1298027 0.57174999
0.28258917 0.1290081 0.56825
0.28415269 0.12832703 0.56524998
0.28606489 0.12781623 0.56300002
0.28808108 0.12736216 0.56099999
0.29046488 0.12707838 0.55975002
0.29283515 0.12679459 0.55849999
0.29545677 0.12662433 0.55774999
0.29807028 0.12645406 0.55699998
0.30067566 0.12628378 0.55624998
0.30340946 0.12617028 0.55575001
0.30627567 0.1261135 0.55549997
0.30900002 0.126 0.55500001
0.31185946 0.12594324 0.55475003
0.31471619 0.12588648 0.55449998
0.31757027 0.12582973 0.55425
0.32056621 0.12582973 0.55425
0.32341623 0.12577297 0.55400002
0.3264108 0.12577297 0.55400002
0.3294054 0.12577297 0.55400002
0.33254999 0.12582973 0.55425
0.33569726 0.12588648 0.55449998
0.33900002 0.126 0.55500001
0.34246215 0.12617028 0.55575001
0.34608784 0.1263973 0.55675
0.3639892 0.13178919 0.58050001
0.38056621 0.13661352 0.60175002
0.38365945 0.13655674 0.60149997
0.3865892 0.13644324 0.60100001
0.38951349 0.13632973 0.60049999
0.39243245 0.13621622 0.60000002
0.39534596 0.13610271 0.5995
0.39842027 0.13604595 0.59925002
0.40149188 0.13598919 0.59899998
0.40439191 0.13587567 0.59850001
0.40728647 0.13576216 0.59799999
0.41017568 0.13564865 0.59750003
-0.41115677 0.13812298 0.59425002
-0.40811622 0.13818109 0.59450001
-0.40507296 0.13823919 0.59474999
-0.40236485 0.1384135 0.59549999
-0.39931351 0.13847162 0.59574997
-0.39659187 0.13864595 0.59649998
-0.39353245 0.13870406 0.59675002
-0.3904703 0.13876216 0.597
-0.38772973 0.13893649 0.59775001
-0.38449866 0.13893649 0.59775001
-0.38158646 0.1390527 0.59824997
-0.37851083 0.13911082 0.59850001
-0.37574595 0.13928513 0.59925002
-0.37250677 0.13928513 0.59925002
-0.36957565 0.13940135 0.59974998
-0.3666392 0.13951758 0.60025001
-0.36339462 0.13951758 0.60025001
-0.36029997 0.13957568 0.60049999
-0.35720271 0.13963379 0.60075003
-0.3541027 0.13969189 0.60100001
-0.35100001 0.13975 0.60124999
-0.34803921 0.13986622 0.60175002
-0.34478649 0.13986622 0.60175002
-0.34167567 0.13992433 0.602
-0.33856213 0.13998243 0.60224998
-0.33530673 0.13998243 0.60224998
-0.33205134 0.13998243 0.60224998
-0.32893243 0.14004055 0.60250002
-0.32581082 0.14009865 0.60275
-0.32268646 0.14015675 0.60299999
-0.31955945 0.14021486 0.60325003
-0.31629866 0.14021486 0.60325003
-0.31303784 0.14021486 0.60325003
-0.30977702 0.14021486 0.60325003
-0.30664325 0.14027297 0.60350001
-0.30338109 0.14027297 0.60350001
-0.30024326 0.14033109 0.60374999
-0.29697973 0.14033109 0.60374999
-0.29383782 0.14038917 0.60399997
-0.29045272 0.14033109 0.60374999
-0.2873081 0.14038917 0.60399997
-0.28392568 0.14033109 0.60374999
-0.28077835 0.14038917 0.60399997
-0.2775135 0.14038917 0.60399997
-0.27424863 0.14038917 0.60399997
-0.27098376 0.14038917 0.60399997
-0.26771891 0.14038917 0.60399997
-0.26445404 0.14038917 0.60399997
-0.26118916 0.14038917 0.60399997
-0.25792432 0.14038917 0.60399997
-0.25465944 0.14038917 0.60399997
-0.25139457 0.14038917 0.60399997
-0.24812971 0.14038917 0.60399997
-0.24486485 0.14038917 0.60399997
-0.24159999 0.14038917 0.60399997
-0.23833512 0.14038917 0.60399997
-0.23507026 0.14038917 0.60399997
-0.2318054 0.14038917 0.60399997
-0.22844595 0.14033109 0.60374999
-0.22518243 0.14033109 0.60374999
-0.22191893 0.14033109 0.60374999
-0.21865541 0.14033109 0.60374999
-0.21539189 0.14033109 0.60374999
-0.21212839 0.14033109 0.60374999
-0.20886487 0.14033109 0.60374999
-0.20551622 0.14027297 0.60350001
-0.20217027 0.14021486 0.60325003
-0.19890946 0.14021486 0.60325003
-0.19564866 0.14021486 0.60325003
-0.19238783 0.14021486 0.60325003
-0.18912703 0.14021486 0.60325003
-0.18578918 0.14015675 0.60299999
-0.18245405 0.14009865 0.60275
-0.17919596 0.14009865 0.60275
-0.17593785 0.14009865 0.60275
-0.17267974 0.14009865 0.60275
-0.16942163 0.14009865 0.60275
-0.16602567 0.13998243 0.60224998
-0.16277026 0.13998243 0.60224998
-0.15951486 0.13998243 0.60224998
-0.15625945 0.13998243 0.60224998
-0.15294054 0.13992433 0.602
-0.14974864 0.13998243 0.60224998
-0.14637162 0.13986622 0.60175002
-0.14311892 0.13986622 0.60175002
-0.1398081 0.1398081 0.60149997
-0.13661352 0.13986622 0.60175002
-0.1333054 0.1398081 0.60149997
-0.13 0.13975 0.60124999
-0.12675001 0.13975 0.60124999
-0.12344866 0.13969189 0.60100001
-0.12025 0.13975 0.60124999
-0.117 0.13975 0.60124999
-0.11375 0.13975 0.60124999
-0.11040811 0.13963379 0.60075003
-0.10716081 0.13963379 0.60075003
-0.10391352 0.13963379 0.60075003
-0.10062432 0.13957568 0.60049999
-0.097378373 0.13957568 0.60049999
-0.094132431 0.13957568 0.60049999
-0.090848655 0.13951758 0.60025001
-0.087604053 0.13951758 0.60025001
-0.08435946 0.13951758 0.60025001
-0.081081085 0.13945946 0.60000002
-0.07783784 0.13945946 0.60000002
-0.074625678 0.13951758 0.60025001
-0.071351349 0.13945946 0.60000002
-0.068079725 0.13940135 0.59974998
-0.064837836 0.13940135 0.59974998
-0.061595943 0.13940135 0.59974998
-0.05835405 0.13940135 0.59974998
-0.055089191 0.13934325 0.5995
-0.051870268 0.13940135 0.59974998
-0.048608109 0.13934325 0.5995
-0.045348652 0.13928513 0.59925002
-0.04210946 0.13928513 0.59925002
-0.038886487 0.13934325 0.5995
-0.035660811 0.13940135 0.59974998
-0.032391891 0.13928513 0.59925002
-0.029152703 0.13928513 0.59925002
-0.025913514 0.13928513 0.59925002
-0.022674326 0.13928513 0.59925002
-0.019435136 0.13928513 0.59925002
-0.016195945 0.13928513 0.59925002
-0.012956757 0.13928513 0.59925002
-0.0097175678 0.13928513 0.59925002
-0.0064756754 0.13922702 0.59899998
-0.0032378377 0.13922702 0.59899998
0 0.13922702 0.59899998
0.0032378377 0.13922702 0.59899998
0.0064756754 0.13922702 0.59899998
0.0097175678 0.13928513 0.59925002
0.012956757 0.13928513 0.59925002
0.016195945 0.13928513 0.59925002
0.019435136 0.13928513 0.59925002
0.022674326 0.13928513 0.59925002
0.025913514 0.13928513 0.59925002
0.029152703 0.13928513 0.59925002
0.032391891 0.13928513 0.59925002
0.035660811 0.13940135 0.59974998
0.038886487 0.13934325 0.5995
0.04210946 0.13928513 0.59925002
0.045367569 0.13934325 0.5995
0.048628375 0.13940135 0.59974998
0.051805403 0.13922702 0.59899998
0.050563514 0.12789595 0.55024999
0.05302703 0.12667568 0.54500002
0.055690538 0.12603648 0.54224998
0.05843243 0.12562972 0.54049999
0.061212167 0.1253392 0.53925002
0.064008109 0.12510677 0.53825003
0.066824332 0.12493244 0.53750002
0.069664866 0.12481622 0.537
0.072499998 0.12469999 0.53649998
0.075364865 0.12464189 0.53625
0.078227028 0.12458378 0.53600001
0.081124321 0.12458378 0.53600001
0.08402162 0.12458378 0.53600001
0.08691892 0.12458378 0.53600001
0.089816213 0.12458378 0.53600001
0.092756756 0.12464189 0.53625
0.095744602 0.12475812 0.53675002
0.098783791 0.12493244 0.53750002
0.10187837 0.12516487 0.53850001
0.10498378 0.12539729 0.5395
0.10820001 0.12574595 0.54100001
0.11148378 0.12615269 0.54275
0.1268027 0.1398081 0.60149997
0.13005404 0.1398081 0.60149997
0.1333054 0.1398081 0.60149997
0.13661352 0.13986622 0.60175002
0.13986622 0.13986622 0.60175002
0.14311892 0.13986622 0.60175002
0.14643243 0.13992433 0.602
0.14974864 0.13998243 0.60224998
0.15294054 0.13992433 0.602
0.15625945 0.13998243 0.60224998
0.15951486 0.13998243 0.60224998
0.16283783 0.14004055 0.60250002
0.1660946 0.14004055 0.60250002
0.16942163 0.14009865 0.60275
0.17267974 0.14009865 0.60275
0.17593785 0.14009865 0.60275
0.17919596 0.14009865 0.60275
0.18252972 0.14015675 0.60299999
0.18586622 0.14021486 0.60325003
0.18912703 0.14021486 0.60325003
0.19238783 0.14021486 0.60325003
0.19564866 0.14021486 0.60325003
0.19890946 0.14021486 0.60325003
0.20225406 0.14027297 0.60350001
0.20560135 0.14033109 0.60374999
0.20886487 0.14033109 0.60374999
0.21212839 0.14033109 0.60374999
0.21539189 0.14033109 0.60374999
0.21874593 0.14038917 0.60399997
0.22191893 0.14033109 0.60374999
0.22518243 0.14033109 0.60374999
0.22854052 0.14038917 0.60399997
0.2318054 0.14038917 0.60399997
0.23507026 0.14038917 0.60399997
0.23833512 0.14038917 0.60399997
0.24159999 0.14038917 0.60399997
0.24486485 0.14038917 0.60399997
0.24812971 0.14038917 0.60399997
0.25139457 0.14038917 0.60399997
0.25465944 0.14038917 0.60399997
0.25792432 0.14038917 0.60399997
0.26118916 0.14038917 0.60399997
0.26456353 0.1404473 0.60425001
0.26782975 0.1404473 0.60425001
0.27109596 0.1404473 0.60425001
0.27402163 0.14027297 0.60350001
0.27625 0.13975 0.60124999
0.27752432 0.13876216 0.597
0.27781215 0.13730946 0.59074998
0.27838922 0.13603109 0.58525002
0.2791473 0.13486892 0.58025002
0.28009459 0.13382298 0.57574999
0.28111622 0.13283513 0.5715
0.28234053 0.13196351 0.56774998
0.28390136 0.13126622 0.56475002
0.28568381 0.13068515 0.56225002
0.28769594 0.13022026 0.56024998
0.2898162 0.12981351 0.55849999
0.29217976 0.12952298 0.55725002
0.29479459 0.12934865 0.55650002
0.29740134 0.12917432 0.55575001
0.30000001 0.12900001 0.55500001
0.30272701 0.12888378 0.55449998
0.30544865 0.12876756 0.55400002
0.30816486 0.12865135 0.5535
0.31101623 0.12859325 0.55325001
0.31386486 0.12853512 0.55299997
0.31671083 0.12847702 0.55274999
0.31955406 0.12841892 0.55250001
0.32254055 0.12841892 0.55250001
0.32552704 0.12841892 0.55250001
0.32851353 0.12841892 0.55250001
0.33149999 0.12841892 0.55250001
0.33463785 0.12847702 0.55274999
0.33777836 0.12853512 0.55299997
0.34107569 0.12865135 0.5535
0.3445338 0.12882568 0.55425
0.34784326 0.12894189 0.55475003
0.36507162 0.13417162 0.57725
0.38126758 0.13893649 0.59775001
0.38465944 0.13899459 0.59799999
0.38772973 0.13893649 0.59775001
0.39063376 0.13882026 0.59724998
0.39369732 0.13876216 0.597
0.39675811 0.13870406 0.59675002
0.39948109 0.13852973 0.59600002
0.40253377 0.13847162 0.59574997
0.40541354 0.1383554 0.59525001
0.40828782 0.13823919 0.59474999
-0.40908107 0.14062162 0.59125
-0.40605676 0.14068107 0.59149998
-0.40320003 0.1408 0.59200001
-0.40033782 0.14091891 0.59249997
-0.39747027 0.14103784 0.59299999
-0.39459732 0.14115676 0.59350002
-0.39171889 0.14127567 0.59399998
-0.38867164 0.14133514 0.59425002
-0.38562164 0.1413946 0.59450001
-0.38272974 0.14151353 0.59500003
-0.37983242 0.14163242 0.59549999
-0.3767716 0.14169189 0.59574997
-0.37370813 0.14175135 0.59600002
-0.37064189 0.1418108 0.59625
-0.36757296 0.14187026 0.59649998
-0.36465406 0.1419892 0.597
-0.36142704 0.1419892 0.597
-0.3585 0.14210811 0.59750003
-0.35541892 0.14216757 0.59775001
-0.35233513 0.14222702 0.59799999
-0.34939462 0.14234595 0.59850001
-0.34615946 0.14234595 0.59850001
-0.34306759 0.14240541 0.59875
-0.33997294 0.14246486 0.59899998
-0.33673513 0.14246486 0.59899998
-0.33349729 0.14246486 0.59899998
-0.33039731 0.14252433 0.59925002
-0.32729459 0.14258379 0.5995
-0.32418919 0.14264324 0.59974998
-0.3210811 0.1427027 0.60000002
-0.31797028 0.14276217 0.60025001
-0.3147257 0.14276217 0.60025001
-0.31161079 0.14282161 0.60049999
-0.30836484 0.14282161 0.60049999
-0.30524597 0.14288108 0.60075003
-0.30187297 0.14282161 0.60049999
-0.29875135 0.14288108 0.60075003
-0.29562703 0.14294055 0.60100001
-0.2923784 0.14294055 0.60100001
-0.28912973 0.14294055 0.60100001
-0.28600001 0.14300001 0.60124999
-0.28263244 0.14294055 0.60100001
-0.27938378 0.14294055 0.60100001
-0.27625 0.14300001 0.60124999
-0.273 0.14300001 0.60124999
-0.26963785 0.14294055 0.60100001
-0.2665 0.14300001 0.60124999
-0.26324999 0.14300001 0.60124999
-0.2598919 0.14294055 0.60100001
-0.25675002 0.14300001 0.60124999
-0.2533946 0.14294055 0.60100001
-0.25025001 0.14300001 0.60124999
-0.24689731 0.14294055 0.60100001
-0.24364865 0.14294055 0.60100001
-0.2405 0.14300001 0.60124999
-0.23715135 0.14294055 0.60100001
-0.234 0.14300001 0.60124999
-0.23075001 0.14300001 0.60124999
-0.22740541 0.14294055 0.60100001
-0.22415677 0.14294055 0.60100001
-0.22090811 0.14294055 0.60100001
-0.21756892 0.14288108 0.60075003
-0.21423241 0.14282161 0.60049999
-0.21098648 0.14282161 0.60049999
-0.20774053 0.14282161 0.60049999
-0.20449458 0.14282161 0.60049999
-0.20124865 0.14282161 0.60049999
-0.1980027 0.14282161 0.60049999
-0.19475675 0.14282161 0.60049999
-0.1915108 0.14282161 0.60049999
-0.1881865 0.14276217 0.60025001
-0.18486486 0.1427027 0.60000002
-0.18162163 0.1427027 0.60000002
-0.1784527 0.14276217 0.60025001
-0.17513514 0.1427027 0.60000002
-0.1718919 0.1427027 0.60000002
-0.16857837 0.14264324 0.59974998
-0.16526757 0.14258379 0.5995
-0.16209459 0.14264324 0.59974998
-0.15878649 0.14258379 0.5995
-0.15541621 0.14246486 0.59899998
-0.1522419 0.14252433 0.59925002
-0.14894053 0.14246486 0.59899998
-0.14570269 0.14246486 0.59899998
-0.14246486 0.14246486 0.59899998
-0.13916892 0.14240541 0.59875
-0.13587567 0.14234595 0.59850001
-0.13269594 0.14240541 0.59875
-0.12940541 0.14234595 0.59850001
-0.12617028 0.14234595 0.59850001
-0.12293514 0.14234595 0.59850001
-0.11964999 0.14228648 0.59824997
-0.11636756 0.14222702 0.59799999
-0.11313513 0.14222702 0.59799999
-0.10990269 0.14222702 0.59799999
-0.10667027 0.14222702 0.59799999
-0.10343783 0.14222702 0.59799999
-0.1002054 0.14222702 0.59799999
-0.096932434 0.14216757 0.59775001
-0.093701355 0.14216757 0.59775001
-0.090470269 0.14216757 0.59775001
-0.087202705 0.14210811 0.59750003
-0.083972976 0.14210811 0.59750003
-0.080709457 0.14204864 0.59724998
-0.077481076 0.14204864 0.59724998
-0.074221626 0.1419892 0.597
-0.070994601 0.1419892 0.597
-0.06779594 0.14204864 0.59724998
-0.064540543 0.1419892 0.597
-0.061313517 0.1419892 0.597
-0.058086488 0.1419892 0.597
-0.054836489 0.14192973 0.59675002
-0.051589187 0.14187026 0.59649998
-0.048385136 0.14192973 0.59675002
-0.045140538 0.14187026 0.59649998
-0.041916214 0.14187026 0.59649998
-0.038708109 0.14192973 0.59675002
-0.035467565 0.14187026 0.59649998
-0.032243241 0.14187026 0.59649998
-0.029018918 0.14187026 0.59649998
-0.025794594 0.14187026 0.59649998
-0.022570269 0.14187026 0.59649998
-0.019345945 0.14187026 0.59649998
-0.01612162 0.14187026 0.59649998
-0.012897297 0.14187026 0.59649998
-0.0096729724 0.14187026 0.59649998
-0.0064459457 0.1418108 0.59625
-0.0032229729 0.1418108 0.59625
0 0.1418108 0.59625
0.0032229729 0.1418108 0.59625
0.0064459457 0.1418108 0.59625
0.0096729724 0.14187026 0.59649998
0.012897297 0.14187026 0.59649998
0.01612162 0.14187026 0.59649998
0.019345945 0.14187026 0.59649998
0.022570269 0.14187026 0.59649998
0.025794594 0.14187026 0.59649998
0.029018918 0.14187026 0.59649998
0.032243241 0.14187026 0.59649998
0.035467565 0.14187026 0.59649998
0.038708109 0.14192973 0.59675002
0.041916214 0.14187026 0.59649998
0.045159459 0.14192973 0.59675002
0.048405409 0.1419892 0.597
0.051589187 0.14187026 0.59649998
0.050402705 0.13045406 0.5485
0.052856758 0.12920541 0.54325002
0.055485133 0.12849189 0.54025
0.058216214 0.12807567 0.53850001
0.060985133 0.12777838 0.53724998
0.063770272 0.12754054 0.53625
0.066575676 0.12736216 0.53549999
0.069372974 0.12718378 0.53474998
0.072229728 0.12712432 0.5345
0.075048648 0.1270054 0.53399998
0.077935137 0.1270054 0.53399998
0.080783784 0.12694594 0.53375
0.083668917 0.12694594 0.53375
0.08655405 0.12694594 0.53375
0.089481078 0.1270054 0.53399998
0.092410818 0.12706487 0.53425002
0.09534324 0.12712432 0.5345
0.098324329 0.12724325 0.53500003
0.1014054 0.12748107 0.53600001
0.1044973 0.12771891 0.537
0.10765 0.12801622 0.53825003
0.11097027 0.12849189 0.54025
0.12627567 0.14246486 0.59899998
0.1295135 0.14246486 0.59899998
0.13269594 0.14240541 0.59875
0.13587567 0.14234595 0.59850001
0.13916892 0.14240541 0.59875
0.14246486 0.14246486 0.59899998
0.14576352 0.14252433 0.59925002
0.14894053 0.14246486 0.59899998
0.1522419 0.14252433 0.59925002
0.15554595 0.14258379 0.5995
0.15878649 0.14258379 0.5995
0.16209459 0.14264324 0.59974998
0.16526757 0.14258379 0.5995
0.16857837 0.14264324 0.59974998
0.1718919 0.1427027 0.60000002
0.17513514 0.1427027 0.60000002
0.1784527 0.14276217 0.60025001
0.18169731 0.14276217 0.60025001
0.18486486 0.1427027 0.60000002
0.1881865 0.14276217 0.60025001
0.1915108 0.14282161 0.60049999
0.19475675 0.14282161 0.60049999
0.1980027 0.14282161 0.60049999
0.20124865 0.14282161 0.60049999
0.20449458 0.14282161 0.60049999
0.20774053 0.14282161 0.60049999
0.21107432 0.14288108 0.60075003
0.21441081 0.14294055 0.60100001
0.21765946 0.14294055 0.60100001
0.22090811 0.14294055 0.60100001
0.22415677 0.14294055 0.60100001
0.22750001 0.14300001 0.60124999
0.23084593 0.14305945 0.60149997
0.234 0.14300001 0.60124999
0.23715135 0.14294055 0.60100001
0.2405 0.14300001 0.60124999
0.24385133 0.14305945 0.60149997
0.24710269 0.14305945 0.60149997
0.25035405 0.14305945 0.60149997
0.2536054 0.14305945 0.60149997
0.25685674 0.14305945 0.60149997
0.26010808 0.14305945 0.60149997
0.26335946 0.14305945 0.60149997
0.2666108 0.14305945 0.60149997
0.26986215 0.14305945 0.60149997
0.273 0.14300001 0.60124999
0.27567568 0.1427027 0.60000002
0.27752432 0.1419892 0.597
0.27816486 0.14068107 0.59149998
0.27862704 0.13931352 0.58574998
0.27926758 0.13806486 0.58050001
0.28009459 0.13693514 0.57574999
0.28099325 0.13586487 0.57125002
0.28209192 0.13491352 0.56725001
0.28364998 0.13419999 0.56424999
0.2853027 0.13354595 0.56150001
0.28718242 0.1330108 0.55925
0.28929728 0.1325946 0.5575
0.29165539 0.13229729 0.55624998
0.29413244 0.13205945 0.55524999
0.29673243 0.13188107 0.55449998
0.2993243 0.13170269 0.55374998
0.30190808 0.13152431 0.55299997
0.30462164 0.13140541 0.55250001
0.30746892 0.13134594 0.55225003
0.31031349 0.13128647 0.55199999
0.31315541 0.13122703 0.55175
0.31599459 0.13116758 0.55150002
0.31883106 0.13110811 0.55124998
0.32166487 0.13104865 0.551
0.32464325 0.13104865 0.551
0.32762164 0.13104865 0.551
0.33059999 0.13104865 0.551
0.33357838 0.13104865 0.551
0.33670944 0.13110811 0.55124998
0.33984324 0.13116758 0.55150002
0.34313512 0.13128647 0.55199999
0.34658921 0.13146487 0.55274999
0.35020944 0.13170269 0.55374998
0.36675674 0.13675675 0.57499999
0.38272974 0.14151353 0.59500003
0.38578376 0.14145406 0.59474999
0.38883516 0.1413946 0.59450001
0.39171889 0.14127567 0.59399998
0.3947635 0.14121622 0.59375
0.39763781 0.14109729 0.59324998
0.40050676 0.14097838 0.59275001
0.40337026 0.14085945 0.59224999
0.40622839 0.14074054 0.59175003
-0.4071784 0.14314866 0.58850002
-0.4041689 0.14320946 0.58875
-0.40132704 0.1433311 0.58925003
-0.39847973 0.1434527 0.58974999
-0.39562705 0.14357433 0.59025002
-0.39276892 0.14369594 0.59074998
-0.38974056 0.14375676 0.59100002
-0.38687298 0.14387837 0.59149998
-0.384 0.14400001 0.59200001
-0.38112161 0.14412162 0.59249997
-0.3780784 0.14418244 0.59275001
-0.37503242 0.14424324 0.59299999
-0.37214056 0.14436486 0.59350002
-0.36908782 0.14442568 0.59375
-0.36587837 0.14442568 0.59375
-0.36282161 0.14448649 0.59399998
-0.36006486 0.14466891 0.59474999
-0.35685 0.14466891 0.59474999
-0.35378379 0.14472973 0.59500003
-0.35071489 0.14479055 0.59525001
-0.34778917 0.14491215 0.59574997
-0.34456891 0.14491215 0.59574997
-0.34149191 0.14497298 0.59600002
-0.33841214 0.14503378 0.59625
-0.33532971 0.14509459 0.59649998
-0.3322446 0.14515541 0.59675002
-0.32888106 0.14509459 0.59649998
-0.3260662 0.14527702 0.59724998
-0.32270271 0.14521623 0.597
-0.31947568 0.14521623 0.597
-0.31638107 0.14527702 0.59724998
-0.3132838 0.14533785 0.59750003
-0.31005406 0.14533785 0.59750003
-0.30695271 0.14539865 0.59775001
-0.30384862 0.14545946 0.59799999
-0.30074188 0.14552027 0.59824997
-0.29750809 0.14552027 0.59824997
-0.2942743 0.14552027 0.59824997
-0.29104054 0.14552027 0.59824997
-0.28780675 0.14552027 0.59824997
-0.28457296 0.14552027 0.59824997
-0.28133917 0.14552027 0.59824997
-0.27810541 0.14552027 0.59824997
-0.27498651 0.14558108 0.59850001
-0.27186486 0.14564189 0.59875
-0.26851621 0.14558108 0.59850001
-0.26528108 0.14558108 0.59850001
-0.26215541 0.14564189 0.59875
-0.25881082 0.14558108 0.59850001
-0.25568244 0.14564189 0.59875
-0.25234056 0.14558108 0.59850001
-0.24920946 0.14564189 0.59875
-0.24576756 0.14552027 0.59824997
-0.24253377 0.14552027 0.59824997
-0.2394 0.14558108 0.59850001
-0.23616487 0.14558108 0.59850001
-0.23292974 0.14558108 0.59850001
-0.22979055 0.14564189 0.59875
-0.22636485 0.14552027 0.59824997
-0.22313108 0.14552027 0.59824997
-0.21989729 0.14552027 0.59824997
-0.21666351 0.14552027 0.59824997
-0.21334054 0.14545946 0.59799999
-0.2101081 0.14545946 0.59799999
-0.2067892 0.14539865 0.59775001
-0.20355812 0.14539865 0.59775001
-0.20032704 0.14539865 0.59775001
-0.19709595 0.14539865 0.59775001
-0.19386487 0.14539865 0.59775001
-0.19063379 0.14539865 0.59775001
-0.18732433 0.14533785 0.59750003
-0.18409461 0.14533785 0.59750003
-0.18078919 0.14527702 0.59724998
-0.17756081 0.14527702 0.59724998
-0.17433242 0.14527702 0.59724998
-0.17110404 0.14527702 0.59724998
-0.1678054 0.14521623 0.597
-0.16450946 0.14515541 0.59675002
-0.16128379 0.14515541 0.59675002
-0.15805811 0.14515541 0.59675002
-0.15476756 0.14509459 0.59649998
-0.15160677 0.14515541 0.59675002
-0.14831892 0.14509459 0.59649998
-0.14503378 0.14503378 0.59625
-0.1418108 0.14503378 0.59625
-0.13858783 0.14503378 0.59625
-0.13530812 0.14497298 0.59600002
-0.13208649 0.14497298 0.59600002
-0.12891892 0.14503378 0.59625
-0.12564325 0.14497298 0.59600002
-0.12237027 0.14491215 0.59574997
-0.11915 0.14491215 0.59574997
-0.11588108 0.14485134 0.59549999
-0.11266216 0.14485134 0.59549999
-0.10944324 0.14485134 0.59549999
-0.10622432 0.14485134 0.59549999
-0.1030054 0.14485134 0.59549999
-0.099744596 0.14479055 0.59525001
-0.096527033 0.14479055 0.59525001
-0.093309462 0.14479055 0.59525001
-0.090054058 0.14472973 0.59500003
-0.086837843 0.14472973 0.59500003
-0.083621621 0.14472973 0.59500003
-0.080371618 0.14466891 0.59474999
-0.077124327 0.14460811 0.59450001
-0.073910818 0.14460811 0.59450001
-0.070727028 0.14466891 0.59474999
-0.067483783 0.14460811 0.59450001
-0.064243242 0.1445473 0.59425002
-0.061031085 0.1445473 0.59425002
-0.057818919 0.1445473 0.59425002
-0.05458378 0.14448649 0.59399998
-0.051394597 0.1445473 0.59425002
-0.048162162 0.14448649 0.59399998
-0.044970274 0.1445473 0.59425002
-0.04174054 0.14448649 0.59399998
-0.038545948 0.1445473 0.59425002
-0.035318919 0.14448649 0.59399998
-0.032108106 0.14448649 0.59399998
-0.028897297 0.14448649 0.59399998
-0.025675675 0.14442568 0.59375
-0.022466216 0.14442568 0.59375
-0.019264864 0.14448649 0.59399998
-0.016054053 0.14448649 0.59399998
-0.012837837 0.14442568 0.59375
-0.0096283779 0.14442568 0.59375
-0.0064189187 0.14442568 0.59375
-0.0032094594 0.14442568 0.59375
0 0.14442568 0.59375
0.0032094594 0.14442568 0.59375
0.0064189187 0.14442568 0.59375
0.0096283779 0.14442568 0.59375
0.012837837 0.14442568 0.59375
0.016054053 0.14448649 0.59399998
0.019264864 0.14448649 0.59399998
0.022466216 0.14442568 0.59375
0.025675675 0.14442568 0.59375
0.028897297 0.14448649 0.59399998
0.032108106 0.14448649 0.59399998
0.035318919 0.14448649 0.59399998
0.038545948 0.1445473 0.59425002
0.04174054 0.14448649 0.59399998
0.044970274 0.1445473 0.59425002
0.048202705 0.14460811 0.59450001
0.051372971 0.14448649 0.59399998
0.050241895 0.13299325 0.54675001
0.05266216 0.1316554 0.54124999
0.055305403 0.13098648 0.53850001
0.057999998 0.1305 0.53649998
0.060758106 0.13019595 0.53525001
0.063532434 0.12995271 0.53425002
0.066295937 0.12970945 0.53324997
0.069113515 0.12958784 0.53275001
0.071925677 0.12946622 0.53224999
0.074767567 0.12940541 0.53200001
0.07760676 0.12934461 0.53175002
0.08048109 0.12934461 0.53175002
0.083316214 0.12928379 0.53149998
0.086229734 0.12934461 0.53175002
0.089104064 0.12934461 0.53175002
0.092021622 0.12940541 0.53200001
0.094941892 0.12946622 0.53224999
0.097910814 0.12958784 0.53275001
0.10093243 0.12977026 0.53350002
0.10401081 0.13001351 0.5345
0.10714999 0.13031755 0.53574997
0.11035405 0.13068242 0.53724998
0.12569594 0.14503378 0.59625
0.12897296 0.14509459 0.59649998
0.13219729 0.14509459 0.59649998
0.13536486 0.14503378 0.59625
0.13858783 0.14503378 0.59625
0.1418108 0.14503378 0.59625
0.14509459 0.14509459 0.59649998
0.14831892 0.14509459 0.59649998
0.15160677 0.14515541 0.59675002
0.15483244 0.14515541 0.59675002
0.15805811 0.14515541 0.59675002
0.16135135 0.14521623 0.597
0.16457838 0.14521623 0.597
0.1678054 0.14521623 0.597
0.17110404 0.14527702 0.59724998
0.17433242 0.14527702 0.59724998
0.17770946 0.14539865 0.59775001
0.18094054 0.14539865 0.59775001
0.18409461 0.14533785 0.59750003
0.18732433 0.14533785 0.59750003
0.19063379 0.14539865 0.59775001
0.19386487 0.14539865 0.59775001
0.19709595 0.14539865 0.59775001
0.20032704 0.14539865 0.59775001
0.20364323 0.14545946 0.59799999
0.20687567 0.14545946 0.59799999
0.2101081 0.14545946 0.59799999
0.21342972 0.14552027 0.59824997
0.21666351 0.14552027 0.59824997
0.21989729 0.14552027 0.59824997
0.22313108 0.14552027 0.59824997
0.22645947 0.14558108 0.59850001
0.22979055 0.14564189 0.59875
0.23292974 0.14558108 0.59850001
0.23616487 0.14558108 0.59850001
0.2395 0.14564189 0.59875
0.24273649 0.14564189 0.59875
0.24597298 0.14564189 0.59875
0.24920946 0.14564189 0.59875
0.25244597 0.14564189 0.59875
0.25568244 0.14564189 0.59875
0.25891894 0.14564189 0.59875
0.26215541 0.14564189 0.59875
0.26539189 0.14564189 0.59875
0.26862839 0.14564189 0.59875
0.27186486 0.14564189 0.59875
0.27475676 0.14545946 0.59799999
0.27705947 0.14497298 0.59600002
0.27851757 0.14406081 0.59224999
0.27874595 0.14254054 0.58600003
0.27938783 0.14126351 0.58074999
0.28009459 0.1400473 0.57574999
0.28087026 0.13889189 0.57099998
0.28196755 0.13791892 0.56699997
0.28339866 0.13712838 0.56375003
0.28504863 0.13645945 0.56099999
0.28679729 0.13585135 0.55849999
0.28890812 0.13542567 0.55675
0.29113108 0.13506082 0.55524999
0.29360271 0.13481757 0.55425
0.29606351 0.13457432 0.55325001
0.29864866 0.13439189 0.55250001
0.30136216 0.13427027 0.55199999
0.30407026 0.13414866 0.55150002
0.30677298 0.13402703 0.551
0.30961081 0.13396622 0.55075002
0.31230405 0.1338446 0.55024999
0.31513515 0.13378379 0.55000001
0.31810811 0.13378379 0.55000001
0.32093513 0.13372296 0.54974997
0.32390675 0.13372296 0.54974997
0.32672971 0.13366215 0.54949999
0.32969999 0.13366215 0.54949999
0.33282161 0.13372296 0.54974997
0.33579323 0.13372296 0.54974997
0.33891892 0.13378379 0.55000001
0.34220269 0.1339054 0.55049998
0.34549189 0.13402703 0.551
0.3489446 0.13420947 0.55175
0.35272431 0.13451351 0.55299997
0.3806392 0.1439392 0.59175003
0.384 0.14400001 0.59200001
0.38720003 0.14400001 0.59200001
0.39007026 0.14387837 0.59149998
0.39293516 0.14375676 0.59100002
0.3957946 0.14363514 0.5905
0.39864865 0.14351352 0.58999997
0.4014973 0.14339189 0.58950001
0.4045122 0.1433311 0.58925003
-0.40492976 0.14552163 0.58525002
-0.40228111 0.14570811 0.58600003
-0.39945406 0.14583243 0.58649999
-0.39645267 0.14589459 0.58674997
-0.39378378 0.14608108 0.58749998
-0.39077434 0.14614326 0.58775002
-0.38792703 0.14626756 0.58824998
-0.38507432 0.14639188 0.58875
-0.38205406 0.14645405 0.58899999
-0.37903109 0.14651622 0.58925003
-0.37632433 0.14670271 0.58999997
-0.37329325 0.14676487 0.59025002
-0.37025946 0.14682703 0.5905
-0.36737838 0.14695136 0.59100002
-0.36433783 0.14701352 0.59125
-0.3612946 0.14707567 0.59149998
-0.35824865 0.14713785 0.59175003
-0.35505003 0.14713785 0.59175003
-0.35214865 0.14726216 0.59224999
-0.3490946 0.14732432 0.59249997
-0.34603786 0.14738649 0.59275001
-0.34297836 0.14744864 0.59299999
-0.3399162 0.14751081 0.59324998
-0.33685136 0.14757298 0.59350002
-0.33378378 0.14763513 0.59375
-0.3305743 0.14763513 0.59375
-0.3275027 0.1476973 0.59399998
-0.32429188 0.1476973 0.59399998
-0.32108107 0.1476973 0.59399998
-0.31787026 0.1476973 0.59399998
-0.31492433 0.14782164 0.59450001
-0.31171083 0.14782164 0.59450001
-0.30849731 0.14782164 0.59450001
-0.30541214 0.14788377 0.59474999
-0.30232432 0.14794596 0.59500003
-0.29923379 0.14800811 0.59525001
-0.29614052 0.14807026 0.59549999
-0.2929216 0.14807026 0.59549999
-0.28970268 0.14807026 0.59549999
-0.28648376 0.14807026 0.59549999
-0.28326485 0.14807026 0.59549999
-0.28004593 0.14807026 0.59549999
-0.27682701 0.14807026 0.59549999
-0.27372298 0.14813243 0.59574997
-0.27061623 0.1481946 0.59600002
-0.26717025 0.14807026 0.59549999
-0.26406217 0.14813243 0.59574997
-0.26073241 0.14807026 0.59549999
-0.25751349 0.14807026 0.59549999
-0.25440136 0.14813243 0.59574997
-0.25107566 0.14807026 0.59549999
-0.24785675 0.14807026 0.59549999
-0.24463783 0.14807026 0.59549999
-0.24141891 0.14807026 0.59549999
-0.2383 0.14813243 0.59574997
-0.23507972 0.14813243 0.59574997
-0.23176216 0.14807026 0.59549999
-0.22854324 0.14807026 0.59549999
-0.22532432 0.14807026 0.59549999
-0.2221054 0.14807026 0.59549999
-0.21888648 0.14807026 0.59549999
-0.21566756 0.14807026 0.59549999
-0.21244864 0.14807026 0.59549999
-0.2091419 0.14800811 0.59525001
-0.20583785 0.14794596 0.59500003
-0.20270677 0.14800811 0.59525001
-0.19940542 0.14794596 0.59500003
-0.19618919 0.14794596 0.59500003
-0.19297299 0.14794596 0.59500003
-0.18975677 0.14794596 0.59500003
-0.18654054 0.14794596 0.59500003
-0.18332434 0.14794596 0.59500003
-0.18003243 0.14788377 0.59474999
-0.17674325 0.14782164 0.59450001
-0.17352974 0.14782164 0.59450001
-0.17017297 0.1476973 0.59399998
-0.16703244 0.14775947 0.59425002
-0.16375135 0.1476973 0.59399998
-0.16054054 0.1476973 0.59399998
-0.15732972 0.1476973 0.59399998
-0.15411891 0.1476973 0.59399998
-0.1509081 0.1476973 0.59399998
-0.14763513 0.14763513 0.59375
-0.14442568 0.14763513 0.59375
-0.14121622 0.14763513 0.59375
-0.13800675 0.14763513 0.59375
-0.13474055 0.14757298 0.59350002
-0.13153243 0.14757298 0.59350002
-0.12827027 0.14751081 0.59324998
-0.12506351 0.14751081 0.59324998
-0.12185676 0.14751081 0.59324998
-0.11865 0.14751081 0.59324998
-0.11539459 0.14744864 0.59299999
-0.11218919 0.14744864 0.59299999
-0.10898378 0.14744864 0.59299999
-0.10577837 0.14744864 0.59299999
-0.10257297 0.14744864 0.59299999
-0.099325679 0.14738649 0.59275001
-0.096040539 0.14726216 0.59224999
-0.092878379 0.14732432 0.59249997
-0.089637838 0.14726216 0.59224999
-0.086472973 0.14732432 0.59249997
-0.083270267 0.14732432 0.59249997
-0.080033779 0.14726216 0.59224999
-0.076800004 0.1472 0.59200001
-0.073600002 0.1472 0.59200001
-0.070370272 0.14713785 0.59175003
-0.067200005 0.1472 0.59200001
-0.06397298 0.14713785 0.59175003
-0.060774326 0.14713785 0.59175003
-0.057600003 0.1472 0.59200001
-0.054377031 0.14713785 0.59175003
-0.051178381 0.14713785 0.59175003
-0.047959458 0.14707567 0.59149998
-0.044743244 0.14701352 0.59125
-0.041564863 0.14707567 0.59149998
-0.038367566 0.14707567 0.59149998
-0.035155404 0.14701352 0.59125
-0.031972971 0.14707567 0.59149998
-0.028775675 0.14707567 0.59149998
-0.025567567 0.14701352 0.59125
-0.022371622 0.14701352 0.59125
-0.019183783 0.14707567 0.59149998
-0.015986485 0.14707567 0.59149998
-0.012783783 0.14701352 0.59125
-0.0095878374 0.14701352 0.59125
-0.0063918917 0.14701352 0.59125
-0.0031959459 0.14701352 0.59125
0 0.14701352 0.59125
0.0031959459 0.14701352 0.59125
0.0063918917 0.14701352 0.59125
0.0095878374 0.14701352 0.59125
0.012783783 0.14701352 0.59125
0.015986485 0.14707567 0.59149998
0.019183783 0.14707567 0.59149998
0.022371622 0.14701352 0.59125
0.025567567 0.14701352 0.59125
0.028775675 0.14707567 0.59149998
0.031972971 0.14707567 0.59149998
0.035155404 0.14701352 0.59125
0.038367566 0.14707567 0.59149998
0.041564863 0.14707567 0.59149998
0.044781081 0.14713785 0.59175003
0.047979731 0.14713785 0.59175003
0.051156756 0.14707567 0.59149998
0.050035134 0.13538918 0.54449999
0.05246757 0.13408379 0.53925002
0.055099998 0.13339999 0.53649998
0.057810809 0.13296486 0.53474998
0.060531076 0.13259187 0.53324997
0.063264862 0.13228108 0.53200001
0.066047296 0.13209459 0.53125
0.068854049 0.13197026 0.53074998
0.071655408 0.13184595 0.53025001
0.074486479 0.13178377 0.52999997
0.077314869 0.13172162 0.52974999
0.080140539 0.13165946 0.52950001
0.083002701 0.13165946 0.52950001
0.085864864 0.13165946 0.52950001
0.088768922 0.13172162 0.52974999
0.091632433 0.13172162 0.52974999
0.094585136 0.13184595 0.53025001
0.097497299 0.1319081 0.53049999
0.10050676 0.13209459 0.53125
0.10352433 0.13228108 0.53200001
0.1066 0.13252974 0.53299999
0.10978919 0.1329027 0.5345
0.12516892 0.14763513 0.59375
0.12843242 0.1476973 0.59399998
0.13164324 0.1476973 0.59399998
0.13479729 0.14763513 0.59375
0.13800675 0.14763513 0.59375
0.14121622 0.14763513 0.59375
0.14442568 0.14763513 0.59375
0.14763513 0.14763513 0.59375
0.1509081 0.1476973 0.59399998
0.15411891 0.1476973 0.59399998
0.15739596 0.14775947 0.59425002
0.16054054 0.1476973 0.59399998
0.16382028 0.14775947 0.59425002
0.16710271 0.14782164 0.59450001
0.17031622 0.14782164 0.59450001
0.17352974 0.14782164 0.59450001
0.17674325 0.14782164 0.59450001
0.18003243 0.14788377 0.59474999
0.18332434 0.14794596 0.59500003
0.18654054 0.14794596 0.59500003
0.18975677 0.14794596 0.59500003
0.19305407 0.14800811 0.59525001
0.19618919 0.14794596 0.59500003
0.19948919 0.14800811 0.59525001
0.20279188 0.14807026 0.59549999
0.2060108 0.14807026 0.59549999
0.20922972 0.14807026 0.59549999
0.21244864 0.14807026 0.59549999
0.21566756 0.14807026 0.59549999
0.21888648 0.14807026 0.59549999
0.2221054 0.14807026 0.59549999
0.22541891 0.14813243 0.59574997
0.22873515 0.1481946 0.59600002
0.23176216 0.14807026 0.59549999
0.23507972 0.14813243 0.59574997
0.23840001 0.1481946 0.59600002
0.24162163 0.1481946 0.59600002
0.24484324 0.1481946 0.59600002
0.24806488 0.1481946 0.59600002
0.25128651 0.1481946 0.59600002
0.25450811 0.1481946 0.59600002
0.25772974 0.1481946 0.59600002
0.26095137 0.1481946 0.59600002
0.26417297 0.1481946 0.59600002
0.2673946 0.1481946 0.59600002
0.27061623 0.1481946 0.59600002
0.27372298 0.14813243 0.59574997
0.27636218 0.14782164 0.59450001
0.27828243 0.14713785 0.59175003
0.27874595 0.14570811 0.58600003
0.27938783 0.1444027 0.58074999
0.27997297 0.1430973 0.57550001
0.28074729 0.14191622 0.57075
0.28184325 0.14092162 0.56674999
0.28314731 0.14005135 0.56325001
0.28479463 0.13936758 0.56050003
0.28654057 0.13874596 0.55800003
0.28851891 0.13824865 0.55599999
0.29060677 0.13781351 0.55425
0.29294053 0.1375027 0.55299997
0.29552838 0.13731621 0.55225003
0.29797295 0.13706756 0.55124998
0.30067974 0.13694325 0.55075002
0.30338109 0.13681892 0.55024999
0.306077 0.13669458 0.54974997
0.3089081 0.13663243 0.54949999
0.31173649 0.13657027 0.54925001
0.31456217 0.13650811 0.54900002
0.31738511 0.13644594 0.54874998
0.32020542 0.13638379 0.5485
0.32317027 0.13638379 0.5485
0.32613516 0.13638379 0.5485
0.32895002 0.13632162 0.54825002
0.33206487 0.13638379 0.5485
0.33502975 0.13638379 0.5485
0.33799461 0.13638379 0.5485
0.34127027 0.13650811 0.54900002
0.34439459 0.13657027 0.54925001
0.3476797 0.13669458 0.54974997
0.35112971 0.13688107 0.55049998
0.37870947 0.14639188 0.58875
0.38205406 0.14645405 0.58899999
0.38507432 0.14639188 0.58875
0.38792703 0.14626756 0.58824998
0.39077434 0.14614326 0.58775002
0.39378378 0.14608108 0.58749998
0.39679053 0.14601892 0.58724999
0.39962429 0.14589459 0.58674997
0.40245271 0.14577027 0.58625001
-0.40320003 0.14805001 0.58275002
-0.40039325 0.14817703 0.58324999
-0.39758107 0.14830406 0.58375001
-0.39459458 0.14836757 0.58399999
-0.39194053 0.14855811 0.58475
-0.38894594 0.14862162 0.58499998
-0.38611352 0.14874865 0.5855
-0.38311216 0.14881216 0.58574998
-0.38043243 0.1490027 0.58649999
-0.37742293 0.14906621 0.58674997
-0.37441081 0.14912973 0.58700001
-0.37155405 0.14925675 0.58749998
-0.36853516 0.14932027 0.58775002
-0.3655135 0.14938378 0.588
-0.36248919 0.14944729 0.58824998
-0.35946217 0.14951082 0.58850002
-0.35658377 0.14963783 0.58899999
-0.35369998 0.14976487 0.58950001
-0.35051352 0.14976487 0.58950001
-0.34747431 0.14982837 0.58974999
-0.34443241 0.14989188 0.58999997
-0.34153244 0.15001892 0.5905
-0.33834052 0.15001892 0.5905
-0.33529052 0.15008242 0.59074998
-0.33223784 0.15014595 0.59100002
-0.32918242 0.15020946 0.59125
-0.32612431 0.15027297 0.59149998
-0.32292703 0.15027297 0.59149998
-0.31972972 0.15027297 0.59149998
-0.31680003 0.15040001 0.59200001
-0.3136 0.15040001 0.59200001
-0.31040001 0.15040001 0.59200001
-0.30745944 0.15052703 0.59249997
-0.30412838 0.15046351 0.59224999
-0.30105406 0.15052703 0.59249997
-0.29797703 0.15059055 0.59275001
-0.29477298 0.15059055 0.59275001
-0.29169187 0.15065405 0.59299999
-0.28848648 0.15065405 0.59299999
-0.28528106 0.15065405 0.59299999
-0.28207567 0.15065405 0.59299999
-0.27887025 0.15065405 0.59299999
-0.27566487 0.15065405 0.59299999
-0.27257431 0.15071756 0.59324998
-0.26948109 0.1507811 0.59350002
-0.26604864 0.15065405 0.59299999
-0.26295406 0.15071756 0.59324998
-0.25963783 0.15065405 0.59299999
-0.25643241 0.15065405 0.59299999
-0.25322703 0.15065405 0.59299999
-0.25002161 0.15065405 0.59299999
-0.2468162 0.15065405 0.59299999
-0.2436108 0.15065405 0.59299999
-0.24050675 0.15071756 0.59324998
-0.23740001 0.1507811 0.59350002
-0.23409323 0.15071756 0.59324998
-0.23078918 0.15065405 0.59299999
-0.22758378 0.15065405 0.59299999
-0.22437838 0.15065405 0.59299999
-0.22117297 0.15065405 0.59299999
-0.21796755 0.15065405 0.59299999
-0.21476215 0.15065405 0.59299999
-0.21155675 0.15065405 0.59299999
-0.20835134 0.15065405 0.59299999
-0.20505947 0.15059055 0.59275001
-0.20194054 0.15065405 0.59299999
-0.19856757 0.15052703 0.59249997
-0.19536486 0.15052703 0.59249997
-0.19208108 0.15046351 0.59224999
-0.18895945 0.15052703 0.59249997
-0.18575676 0.15052703 0.59249997
-0.18255405 0.15052703 0.59249997
-0.17927568 0.15046351 0.59224999
-0.17600001 0.15040001 0.59200001
-0.1728 0.15040001 0.59200001
-0.16960001 0.15040001 0.59200001
-0.16640002 0.15040001 0.59200001
-0.16313109 0.15033649 0.59175003
-0.15986486 0.15027297 0.59149998
-0.15666756 0.15027297 0.59149998
-0.15347026 0.15027297 0.59149998
-0.15027297 0.15027297 0.59149998
-0.14701352 0.15020946 0.59125
-0.14387837 0.15027297 0.59149998
-0.14062162 0.15020946 0.59125
-0.13736758 0.15014595 0.59100002
-0.13417298 0.15014595 0.59100002
-0.13097839 0.15014595 0.59100002
-0.12772973 0.15008242 0.59074998
-0.12448378 0.15001892 0.5905
-0.12129189 0.15001892 0.5905
-0.11809999 0.15001892 0.5905
-0.11485946 0.14995541 0.59025002
-0.11166892 0.14995541 0.59025002
-0.10847838 0.14995541 0.59025002
-0.10528784 0.14995541 0.59025002
-0.1020973 0.14995541 0.59025002
-0.098864861 0.14989188 0.58999997
-0.095675677 0.14989188 0.58999997
-0.092486486 0.14989188 0.58999997
-0.089297295 0.14989188 0.58999997
-0.086071618 0.14982837 0.58974999
-0.082883783 0.14982837 0.58974999
-0.079662159 0.14976487 0.58950001
-0.076475672 0.14976487 0.58950001
-0.073289186 0.14976487 0.58950001
-0.070102699 0.14976487 0.58950001
-0.066916212 0.14976487 0.58950001
-0.063702703 0.14970136 0.58925003
-0.060543243 0.14976487 0.58950001
-0.057332434 0.14970136 0.58925003
-0.054124322 0.14963783 0.58899999
-0.05094054 0.14963783 0.58899999
-0.047756758 0.14963783 0.58899999
-0.044572972 0.14963783 0.58899999
-0.041371621 0.14957432 0.58875
-0.038205404 0.14963783 0.58899999
-0.035021622 0.14963783 0.58899999
-0.031824324 0.14957432 0.58875
-0.028654054 0.14963783 0.58899999
-0.02547027 0.14963783 0.58899999
-0.022277027 0.14957432 0.58875
-0.019094594 0.14957432 0.58875
-0.015912162 0.14957432 0.58875
-0.012735135 0.14963783 0.58899999
-0.009551351 0.14963783 0.58899999
-0.0063675675 0.14963783 0.58899999
-0.0031837837 0.14963783 0.58899999
0 0.14963783 0.58899999
0.0031837837 0.14963783 0.58899999
0.0063675675 0.14963783 0.58899999
0.009551351 0.14963783 0.58899999
0.012735135 0.14963783 0.58899999
0.015912162 0.14957432 0.58875
0.019094594 0.14957432 0.58875
0.022277027 0.14957432 0.58875
0.02547027 0.14963783 0.58899999
0.028654054 0.14963783 0.58899999
0.031824324 0.14957432 0.58875
0.035021622 0.14963783 0.58899999
0.038205404 0.14963783 0.58899999
0.041371621 0.14957432 0.58875
0.044572972 0.14963783 0.58899999
0.047756758 0.14963783 0.58899999
0.05094054 0.14963783 0.58899999
0.053572971 0.14811352 0.583
0.052248649 0.13642703 0.537
0.054920271 0.13585541 0.53474998
0.057594594 0.13534729 0.53275001
0.060304053 0.13496621 0.53125
0.063027024 0.13464864 0.52999997
0.065798648 0.13445811 0.52925003
0.068562165 0.13426757 0.52850002
0.07138513 0.13420404 0.52824998
0.074170269 0.13407703 0.52775002
0.077022977 0.13407703 0.52775002
0.079837829 0.1340135 0.52749997
0.082689181 0.1340135 0.52749997
0.085540533 0.1340135 0.52749997
0.088391885 0.1340135 0.52749997
0.091286488 0.13407703 0.52775002
0.094183788 0.13414054 0.528
0.097083777 0.13420404 0.52824998
0.10003378 0.13433108 0.52875
0.10303784 0.13452162 0.52950001
0.1061 0.13477568 0.53049999
0.10922433 0.13509326 0.53175002
0.12448378 0.15001892 0.5905
0.12794596 0.15033649 0.59175003
0.1311446 0.15033649 0.59175003
0.13422972 0.15020946 0.59125
0.13742568 0.15020946 0.59125
0.14062162 0.15020946 0.59125
0.14387837 0.15027297 0.59149998
0.14701352 0.15020946 0.59125
0.15027297 0.15027297 0.59149998
0.15347026 0.15027297 0.59149998
0.1567338 0.15033649 0.59175003
0.16000001 0.15040001 0.59200001
0.16313109 0.15033649 0.59175003
0.16640002 0.15040001 0.59200001
0.16960001 0.15040001 0.59200001
0.17294595 0.15052703 0.59249997
0.17607433 0.15046351 0.59224999
0.17927568 0.15046351 0.59224999
0.18255405 0.15052703 0.59249997
0.18575676 0.15052703 0.59249997
0.18895945 0.15052703 0.59249997
0.19224325 0.15059055 0.59275001
0.19552973 0.15065405 0.59299999
0.19873513 0.15065405 0.59299999
0.20194054 0.15065405 0.59299999
0.20514594 0.15065405 0.59299999
0.20835134 0.15065405 0.59299999
0.21155675 0.15065405 0.59299999
0.21476215 0.15065405 0.59299999
0.21796755 0.15065405 0.59299999
0.22126621 0.15071756 0.59324998
0.22456758 0.1507811 0.59350002
0.22777569 0.1507811 0.59350002
0.23088647 0.15071756 0.59324998
0.23409323 0.15071756 0.59324998
0.23740001 0.1507811 0.59350002
0.24050675 0.15071756 0.59324998
0.24381623 0.1507811 0.59350002
0.24702433 0.1507811 0.59350002
0.25023246 0.1507811 0.59350002
0.25344056 0.1507811 0.59350002
0.25664866 0.1507811 0.59350002
0.25985676 0.1507811 0.59350002
0.26306486 0.1507811 0.59350002
0.26616082 0.15071756 0.59324998
0.26948109 0.1507811 0.59350002
0.27257431 0.15071756 0.59324998
0.27554867 0.15059055 0.59275001
0.27781215 0.15008242 0.59074998
0.27862704 0.14881216 0.58574998
0.27938783 0.1475419 0.58074999
0.27997297 0.14620811 0.57550001
0.28074729 0.14500135 0.57075
0.28171894 0.14392163 0.56650001
0.28302163 0.14303245 0.56300002
0.28454053 0.14227027 0.56
0.28615543 0.14157163 0.55725002
0.28812975 0.14106351 0.55524999
0.29021353 0.14061892 0.5535
0.29254326 0.14030135 0.55225003
0.29485947 0.13998379 0.551
0.29743245 0.13979325 0.55024999
0.29999727 0.13960269 0.54949999
0.30269191 0.13947567 0.54900002
0.30552027 0.13941215 0.54874998
0.30834594 0.13934866 0.5485
0.31116894 0.13928513 0.54825002
0.31398916 0.13922161 0.54799998
0.31680676 0.13915811 0.54775
0.31962162 0.13909461 0.54750001
0.32243377 0.13903107 0.54724997
0.32539189 0.13903107 0.54724997
0.32834998 0.13903107 0.54724997
0.3313081 0.13903107 0.54724997
0.33426622 0.13903107 0.54724997
0.33737838 0.13909461 0.54750001
0.34033784 0.13909461 0.54750001
0.34361079 0.13922161 0.54799998
0.3468892 0.13934866 0.5485
0.350173 0.13947567 0.54900002
0.37677974 0.14881216 0.58574998
0.38027027 0.14893919 0.58625001
0.38327569 0.14887568 0.58600003
0.38627836 0.14881216 0.58574998
0.38927838 0.14874865 0.5855
0.39194053 0.14855811 0.58475
0.39493242 0.1484946 0.58450001
0.39758107 0.14830406 0.58375001
0.40056491 0.14824055 0.58350003
-0.40129727 0.15048647 0.57999998
-0.39850542 0.15061621 0.58050001
-0.39570808 0.15074593 0.58099997
-0.39273649 0.15081081 0.58125001
-0.39009729 0.1510054 0.58200002
-0.38711756 0.15107027 0.58225
-0.38413513 0.15113513 0.58249998
-0.3813135 0.15126486 0.583
-0.37832433 0.15132973 0.58324999
-0.37549323 0.15145946 0.58375001
-0.37265673 0.15158918 0.58424997
-0.36949861 0.15158918 0.58424997
-0.36665404 0.15171891 0.58475
-0.36380407 0.15184866 0.58525002
-0.3607946 0.15191351 0.5855
-0.35778242 0.15197837 0.58574998
-0.35491893 0.1521081 0.58625001
-0.35174999 0.1521081 0.58625001
-0.34887835 0.15223783 0.58674997
-0.34570673 0.15223783 0.58674997
-0.34282702 0.15236756 0.58724999
-0.33979729 0.15243243 0.58749998
-0.33676487 0.15249731 0.58775002
-0.33358786 0.15249731 0.58775002
-0.33055136 0.15256216 0.588
-0.32751215 0.15262702 0.58824998
-0.32447028 0.1526919 0.58850002
-0.32142568 0.15275675 0.58875
-0.31824324 0.15275675 0.58875
-0.31519458 0.15282162 0.58899999
-0.31214327 0.15288649 0.58925003
-0.30895811 0.15288649 0.58925003
-0.30577299 0.15288649 0.58925003
-0.30258787 0.15288649 0.58925003
-0.29965675 0.15301621 0.58974999
-0.29659459 0.15308107 0.58999997
-0.29340541 0.15308107 0.58999997
-0.2903392 0.15314595 0.59025002
-0.28714865 0.15314595 0.59025002
-0.28371757 0.15301621 0.58974999
-0.28076759 0.15314595 0.59025002
-0.27757704 0.15314595 0.59025002
-0.2743865 0.15314595 0.59025002
-0.27131081 0.1532108 0.5905
-0.26800543 0.15314595 0.59025002
-0.26481488 0.15314595 0.59025002
-0.26173514 0.1532108 0.5905
-0.25843379 0.15314595 0.59025002
-0.25535133 0.1532108 0.5905
-0.25205272 0.15314595 0.59025002
-0.24896756 0.1532108 0.5905
-0.24567163 0.15314595 0.59025002
-0.24258378 0.1532108 0.5905
-0.23939189 0.1532108 0.5905
-0.23610002 0.15314595 0.59025002
-0.23290947 0.15314595 0.59025002
-0.22971892 0.15314595 0.59025002
-0.22652839 0.15314595 0.59025002
-0.22333784 0.15314595 0.59025002
-0.22014731 0.15314595 0.59025002
-0.21695676 0.15314595 0.59025002
-0.21358514 0.15301621 0.58974999
-0.21048649 0.15308107 0.58999997
-0.20720945 0.15301621 0.58974999
-0.2041081 0.15308107 0.58999997
-0.20083378 0.15301621 0.58974999
-0.19764595 0.15301621 0.58974999
-0.1944581 0.15301621 0.58974999
-0.19127026 0.15301621 0.58974999
-0.18808243 0.15301621 0.58974999
-0.18481621 0.15295134 0.58950001
-0.18155271 0.15288649 0.58925003
-0.17844324 0.15295134 0.58950001
-0.17525676 0.15295134 0.58950001
-0.17199731 0.15288649 0.58925003
-0.16881217 0.15288649 0.58925003
-0.16548648 0.15275675 0.58875
-0.16237298 0.15282162 0.58899999
-0.15912162 0.15275675 0.58875
-0.1560054 0.15282162 0.58899999
-0.15275675 0.15275675 0.58875
-0.14957432 0.15275675 0.58875
-0.14632973 0.1526919 0.58850002
-0.14308783 0.15262702 0.58824998
-0.13996758 0.1526919 0.58850002
-0.13678649 0.1526919 0.58850002
-0.13354865 0.15262702 0.58824998
-0.13036892 0.15262702 0.58824998
-0.12713513 0.15256216 0.588
-0.12395675 0.15256216 0.588
-0.12077837 0.15256216 0.588
-0.1176 0.15256216 0.588
-0.11437298 0.15249731 0.58775002
-0.11119595 0.15249731 0.58775002
-0.10797297 0.15243243 0.58749998
-0.1047973 0.15243243 0.58749998
-0.10162162 0.15243243 0.58749998
-0.098445944 0.15243243 0.58749998
-0.095270269 0.15243243 0.58749998
-0.092055403 0.15236756 0.58724999
-0.088881083 0.15236756 0.58724999
-0.08567027 0.1523027 0.58700001
-0.082497299 0.1523027 0.58700001
-0.079290532 0.15223783 0.58674997
-0.076118916 0.15223783 0.58674997
-0.072947294 0.15223783 0.58674997
-0.069775671 0.15223783 0.58674997
-0.066604048 0.15223783 0.58674997
-0.063432425 0.15223783 0.58674997
-0.060260806 0.15223783 0.58674997
-0.057064865 0.15217297 0.58649999
-0.05387162 0.1521081 0.58625001
